-961.383972 -441.816772 5033.494629
-876.015625 -404.998718 4614.037109
-870.762634 -404.998718 4614.037109
-798.931946 -373.844971 4259.110840
-645.192444 -303.749023 3460.527588
-789.234070 -373.844971 4259.110840
-675.598083 -323.998962 3691.229492
-967.114563 -436.086212 5033.494629
-961.383972 -436.086212 5033.494629
-955.653442 -436.086212 5033.494629
-949.922852 -436.086212 5033.494629
-865.509644 -399.745697 4614.037109
-607.239990 -282.173431 3256.967285
-732.860229 -342.639160 3954.888672
-1133.000732 -532.994263 6152.049316
-633.373169 -299.809265 3460.527588
-967.114563 -430.355652 5033.494629
-961.383972 -430.355652 5033.494629
-955.653442 -430.355652 5033.494629
-949.922852 -430.355652 5033.494629
-865.509644 -394.492676 4614.037109
-607.239990 -278.465424 3256.967285
-684.002869 -315.594147 3691.229492
-1019.700684 -473.391235 5536.844238
-779.536194 -364.147095 4259.110840
-967.114563 -424.625092 5033.494629
-961.383972 -424.625092 5033.494629
-876.015625 -389.239685 4614.037109
-870.762634 -389.239685 4614.037109
-741.865417 -333.634003 3954.888672
-573.504395 -259.493103 3076.024658
-603.531982 -274.757416 3256.967285
-927.000610 -424.625092 5033.494629
-967.114563 -418.894531 5033.494629
-961.383972 -418.894531 5033.494629
-876.015625 -383.986664 4614.037109
-870.762634 -383.986664 4614.037109
-741.865417 -329.131409 3954.888672
-543.319946 -242.517883 2914.128662
-570.002380 -255.991104 3076.024658
-849.750610 -383.986664 4614.037109
-1063.826050 -454.480377 5536.844238
-1057.522339 -454.480377 5536.844238
-876.015625 -378.733643 4614.037109
-870.762634 -378.733643 4614.037109
-798.931946 -349.600281 4259.110840
-607.239990 -267.341400 3256.967285
-684.002869 -302.986908 3691.229492
-1019.700684 -454.480377 5536.844238
-1175.024902 -497.974182 6152.049316
-955.653442 -407.433411 5033.494629
-1044.915161 -448.176758 5536.844238
-944.192322 -407.433411 5033.494629
-688.205261 -298.784515 3691.229492
-789.234070 -344.751343 4259.110840
-1051.218750 -441.873138 5536.844238
-1161.016846 -490.970154 6152.049316
-1038.611572 -441.873138 5536.844238
-794.083008 -339.902405 4259.110840
-789.234070 -339.902405 4259.110840
-1168.020874 -483.966125 6152.049316
-1154.012817 -483.966125 6152.049316
-860.256592 -362.974609 4614.037109
-855.003601 -362.974609 4614.037109
-1032.307983 -429.265900 5536.844238
-855.003601 -357.721588 4614.037109
-932.731201 -384.511169 5033.494629
-1140.004761 -462.954071 6152.049316
59.704227 -9.961198 155.967438
60.050949 -9.989337 156.408035
59.193176 -9.728821 155.093674
59.872883 -9.811269 156.408035
60.050949 -9.811269 156.408035
59.193176 -9.552249 155.093674
59.872883 -9.633200 156.408035
60.050949 -9.633200 156.408035
59.193176 -9.375677 155.093674
59.872883 -9.455132 156.408035
59.881794 -9.428497 155.967438
59.359451 -9.224945 155.529327
60.042496 -9.303345 156.851105
60.050949 -9.277063 156.408035
59.694813 -9.098995 156.408035
60.213070 -9.150694 157.296707
60.221066 -9.124772 156.851105
59.694813 -8.920927 156.408035
60.384617 -8.997174 157.744858
60.221066 -8.946198 156.851105
59.694813 -8.742859 156.408035
60.384617 -8.817584 157.744858
60.392151 -8.792534 157.296707
59.863922 -8.589053 156.851105
60.557144 -8.662674 158.195557
60.737247 -8.662674 158.195557
60.205025 -8.458404 157.744858
60.730659 -8.506876 158.648834
60.911278 -8.506876 158.648834
60.205025 -8.278813 157.744858
60.730659 -8.326257 158.648834
60.911278 -8.326257 158.648834
60.205025 -8.099223 157.744858
60.905174 -8.169044 159.104721
60.911278 -8.145638 158.648834
60.377041 -7.942261 158.195557
60.905174 -7.987906 159.104721
61.086311 -7.987906 159.104721
61.605053 -7.943728 161.896027
60.550041 -7.784399 158.648834
60.905174 -7.806767 159.104721
61.086311 -7.806767 159.104721
61.967434 -7.805056 162.848358
60.550041 -7.603779 158.648834
60.905174 -7.625629 159.104721
61.086311 -7.625629 159.104721
62.150230 -7.642132 163.328735
60.724033 -7.444491 159.104721
61.080692 -7.465945 159.563232
61.262352 -7.465945 159.563232
62.150230 -7.456185 163.328735
60.724033 -7.263352 159.104721
61.080692 -7.284284 159.563232
61.262352 -7.284284 159.563232
62.150230 -7.270237 163.328735
60.724033 -7.082214 159.104721
61.080692 -7.102624 159.563232
61.262352 -7.102624 159.563232
62.334106 -7.105249 163.811966
61.080692 -6.920963 159.563232
61.262352 -6.920963 159.563232
62.892323 -6.980711 165.278931
61.439411 -6.758781 160.024399
-29.630476 -5.148194 125.267967
-29.421297 -5.136573 124.985199
-29.279003 -5.136573 124.985199
62.892323 -6.792543 165.278931
61.439411 -6.576595 160.024399
-29.697666 -5.016929 125.552025
-29.355032 -4.983031 124.703697
-29.147411 -4.971833 124.423470
62.705143 -6.584720 164.787033
61.257225 -6.394410 160.024399
61.262352 -6.375982 159.563232
-29.908424 -4.885067 125.837372
-29.697666 -4.873990 125.552025
-29.355032 -4.841058 124.703697
-29.213058 -4.841058 124.703697
-29.136709 -4.851986 124.985199
61.080692 -6.194322 159.563232
61.262352 -6.194322 159.563232
-30.257992 -4.774356 126.701241
-29.908424 -4.741804 125.837372
-29.765160 -4.741804 125.837372
-29.421297 -4.709692 124.985199
-29.279003 -4.709692 124.985199
60.724033 -5.995384 159.104721
61.080692 -6.012661 159.563232
61.086311 -5.995384 159.104721
-33.004822 -4.887337 133.740204
-32.383236 -4.817517 131.829620
-31.261862 -4.738542 129.668488
-30.754118 -4.683698 128.167694
-30.327391 -4.640728 126.991844
-29.976553 -4.609015 126.124016
-29.832962 -4.609015 126.124016
-29.554726 -4.588112 125.552025
-29.279003 -4.567398 124.985199
60.724033 -5.814245 159.104721
61.080692 -5.831001 159.563232
61.262352 -5.831001 159.563232
-33.471039 -4.758061 134.389420
-33.318039 -4.758061 134.389420
-32.767376 -4.701010 132.778046
-32.229763 -4.645311 131.204834
-32.004547 -4.634329 130.894669
-31.335247 -4.601693 129.972870
-30.969181 -4.569513 129.063965
-30.608200 -4.537781 128.167694
-30.321905 -4.516869 127.577057
-30.038235 -4.496150 126.991844
-29.621897 -4.455276 125.837372
-29.411787 -4.445173 125.552025
61.257225 -5.665668 160.024399
61.262352 -5.649341 159.563232
-33.634312 -4.627524 135.044983
-33.480564 -4.627524 135.044983
-33.004822 -4.582814 133.740204
-32.460526 -4.528127 132.144257
-32.156590 -4.506615 131.516495
-31.931013 -4.495936 131.204834
-31.631725 -4.474729 130.585953
-31.335247 -4.453721 129.972870
-30.969181 -4.422576 129.063965
-30.822245 -4.422576 129.063965
-30.603970 -4.412291 128.763824
-30.176661 -4.371624 127.577057
-29.757156 -4.331701 126.411972
-29.411787 -4.302234 125.552025
-29.115011 -4.321834 126.124016
61.257225 -5.483483 160.024399
61.262352 -5.467680 159.563232
-33.953686 -4.495708 135.706970
-33.634312 -4.473778 135.044983
-33.562424 -4.484716 135.375168
-33.084736 -4.441280 134.064026
-32.460526 -4.377682 132.144257
-32.156590 -4.356885 131.516495
-31.557297 -4.315880 130.278687
-31.188820 -4.285628 129.365524
-30.825474 -4.255798 128.465057
-30.750565 -4.265695 128.763824
-30.603970 -4.265695 128.763824
-30.176661 -4.226380 127.577057
-29.757156 -4.187783 126.411972
-29.411787 -4.159295 125.552025
-29.202629 -4.149884 125.267967
-29.115011 -4.178244 126.124016
-28.774782 -4.149884 125.267967
60.550041 -5.255727 158.648834
61.080692 -5.286020 159.563232
61.262352 -5.286020 159.563232
-33.634312 -4.320031 135.044983
-33.318039 -4.299060 134.389420
-32.846146 -4.257723 133.097214
-32.306316 -4.207156 131.516495
-32.080387 -4.197186 131.204834
-31.557297 -4.167559 130.278687
-31.261862 -4.148039 129.668488
-30.969181 -4.128701 129.063965
-30.894258 -4.138348 129.365524
-30.532961 -4.109542 128.465057
-30.176661 -4.081135 127.577057
-29.757156 -4.043865 126.411972
-29.411787 -4.016356 125.552025
-29.202629 -4.007268 125.267967
-29.258600 -4.034653 126.124016
-29.181482 -4.043865 126.411972
60.550041 -5.075108 158.648834
61.080692 -5.104359 159.563232
61.086311 -5.089692 159.104721
-33.777039 -4.146060 134.389420
-33.788059 -4.166284 135.044983
-33.471039 -4.146060 134.389420
-33.157082 -4.126030 133.740204
-32.610970 -4.076794 132.144257
-32.153568 -4.038242 130.894669
-32.004547 -4.038242 130.894669
-31.557297 -4.019239 130.278687
-31.335247 -4.009804 129.972870
-31.041540 -3.991067 129.365524
-30.966610 -4.000413 129.668488
-30.675306 -3.981764 129.063965
-30.246351 -3.944980 127.871689
-29.893656 -3.917836 126.991844
-29.478632 -3.882219 125.837372
-29.325401 -3.899946 126.411972
-29.248260 -3.908871 126.701241
60.550041 -4.894489 158.648834
61.080692 -4.922699 159.563232
61.086311 -4.908553 159.104721
-33.755318 -3.954664 133.097214
-33.372040 -3.945181 132.778046
-33.300732 -3.954664 133.097214
-33.149200 -3.954664 133.097214
-32.839790 -3.935743 132.460388
-32.456047 -3.907697 131.516495
-32.077736 -3.880048 130.585953
-31.929066 -3.880048 130.585953
-31.780396 -3.880048 130.585953
-31.557297 -3.870919 130.278687
-31.335247 -3.861832 129.972870
-31.041540 -3.843786 129.365524
-30.966610 -3.852788 129.668488
-30.603970 -3.825908 128.763824
-30.316366 -3.808195 128.167694
-29.893656 -3.773258 126.991844
-29.478632 -3.738955 125.837372
-29.392508 -3.764623 126.701241
60.550041 -4.713869 158.648834
61.080692 -4.741039 159.563232
61.086311 -4.727415 159.104721
-33.836658 -3.812299 133.417938
-33.603790 -3.803135 133.097214
-33.292202 -3.784938 132.460388
-33.141399 -3.784938 132.460388
-33.069706 -3.794015 132.778046
-32.839790 -3.784938 132.460388
-32.456047 -3.757967 131.516495
-32.153568 -3.740199 130.894669
-32.080387 -3.749062 131.204834
-31.855526 -3.740199 130.894669
-31.631725 -3.731378 130.585953
-31.335247 -3.713860 129.972870
-31.114237 -3.705162 129.668488
-30.966610 -3.705162 129.668488
-30.746979 -3.696505 129.365524
-30.386705 -3.670775 128.465057
-29.893656 -3.628680 126.991844
-29.478632 -3.595691 125.837372
60.377041 -4.520298 158.195557
60.905174 -4.546277 159.104721
61.086311 -4.546277 159.104721
-34.153145 -3.678131 134.064026
-33.836658 -3.660405 133.417938
-33.443005 -3.634134 132.460388
-33.212746 -3.625461 132.144257
-33.141399 -3.634134 132.460388
-33.069706 -3.642849 132.778046
-32.839790 -3.634134 132.460388
-32.456047 -3.608238 131.516495
-32.229763 -3.599687 131.204834
-32.080387 -3.599687 131.204834
-31.780396 -3.582708 130.585953
-31.557297 -3.574278 130.278687
-31.335247 -3.565887 129.972870
-31.114237 -3.557536 129.668488
-31.039303 -3.565887 129.972870
-30.675306 -3.540951 129.063965
-30.316366 -3.516361 128.167694
-29.825251 -3.476128 126.701241
-29.411787 -3.444599 125.552025
60.205025 -4.327829 157.744858
60.730659 -4.352631 158.648834
60.911278 -4.352631 158.648834
-36.440086 -3.695513 140.529037
-35.469868 -3.612983 137.390671
-34.966393 -3.577474 136.040405
-34.236042 -3.534058 134.389420
-33.918388 -3.516985 133.740204
-33.443005 -3.483330 132.460388
-33.212746 -3.475017 132.144257
-33.220875 -3.491683 132.778046
-33.149200 -3.500077 133.097214
-32.918541 -3.491683 132.778046
-32.533325 -3.466743 131.829620
-32.306316 -3.458508 131.516495
-32.080387 -3.450313 131.204834
-31.780396 -3.434037 130.585953
-31.557297 -3.425957 130.278687
-31.408976 -3.425957 130.278687
-31.187275 -3.417915 129.972870
-30.966610 -3.409911 129.668488
-30.675306 -3.394014 129.063965
-30.246351 -3.362660 127.871689
-29.757156 -3.324274 126.411972
-29.411787 -3.301660 125.552025
60.033989 -4.136454 157.296707
60.730659 -4.172011 158.648834
60.911278 -4.172011 158.648834
-36.786812 -3.553560 141.246033
-36.164719 -3.508806 139.467102
-35.207775 -3.431024 136.375473
-34.556793 -3.397551 135.044983
-34.153145 -3.372871 134.064026
-33.755318 -3.348547 133.097214
-33.363190 -3.324572 132.144257
-33.212746 -3.324572 132.144257
-33.220875 -3.340517 132.778046
-33.229080 -3.356616 133.417938
-32.918541 -3.340517 132.778046
-32.533325 -3.316657 131.829620
-32.306316 -3.308779 131.516495
-32.080387 -3.300938 131.204834
-31.780396 -3.285367 130.585953
-31.557297 -3.277637 130.278687
-31.335247 -3.269943 129.972870
-31.114237 -3.262285 129.668488
-30.966610 -3.262285 129.668488
-30.675306 -3.247076 129.063965
-30.246351 -3.217080 127.871689
-29.825251 -3.187633 126.701241
-29.411787 -3.158720 125.552025
60.033989 -3.957374 157.296707
60.730659 -3.991392 158.648834
60.911278 -3.991392 158.648834
-35.714909 -3.308357 137.732437
-34.626087 -3.235911 134.716400
-34.389042 -3.228057 134.389420
-33.988552 -3.204722 133.417938
-33.755318 -3.197018 133.097214
-33.443005 -3.181721 132.460388
-33.292202 -3.181721 132.460388
-33.380974 -3.204722 133.417938
-33.229080 -3.204722 133.417938
-32.918541 -3.189352 132.778046
-32.533325 -3.166570 131.829620
-32.306316 -3.159049 131.516495
-32.080387 -3.151563 131.204834
-31.780396 -3.136697 130.585953
-31.557297 -3.129317 130.278687
-31.261862 -3.114660 129.668488
-30.969181 -3.100139 129.063965
-30.894258 -3.107382 129.365524
-30.675306 -3.100139 129.063965
-30.386705 -3.085753 128.465057
-29.893656 -3.050366 126.991844
-29.411787 -3.015781 125.552025
-29.071085 -2.995404 124.703697
60.033989 -3.778294 157.296707
60.730659 -3.810772 158.648834
60.911278 -3.810772 158.648834
-35.538101 -3.135949 137.050598
-34.626087 -3.082539 134.716400
-34.305775 -3.067611 134.064026
-33.988552 -3.052828 133.417938
-33.755318 -3.045489 133.097214
-33.443005 -3.030917 132.460388
-33.372040 -3.038186 132.778046
-33.300732 -3.045489 133.097214
-33.149200 -3.045489 133.097214
-32.839790 -3.030917 132.460388
-32.456047 -3.009319 131.516495
-32.229763 -3.002188 131.204834
-32.080387 -3.002188 131.204834
-31.780396 -2.988027 130.585953
-31.483219 -2.973999 129.972870
-31.188820 -2.960101 129.365524
-30.897160 -2.946334 128.763824
-30.894258 -2.960101 129.365524
-30.675306 -2.953202 129.063965
-30.386705 -2.939497 128.465057
-29.962378 -2.912468 127.283775
-29.478632 -2.879371 125.837372
-29.136709 -2.859872 124.985199
59.863922 -3.589018 156.851105
60.557144 -3.619781 158.195557
60.911278 -3.630153 158.648834
-36.733589 -3.040119 139.819305
-36.028522 -2.994745 137.732437
-35.363037 -2.965240 136.375473
-34.949528 -2.943490 135.375168
-34.626087 -2.929166 134.716400
-34.305775 -2.914981 134.064026
-33.988552 -2.900933 133.417938
-33.836658 -2.900933 133.417938
-33.603790 -2.893960 133.097214
-33.372040 -2.887020 132.778046
-33.300732 -2.893960 133.097214
-33.069706 -2.887020 132.778046
-32.839790 -2.880113 132.460388
-32.533325 -2.866398 131.829620
-32.229763 -2.852813 131.204834
-32.004547 -2.846069 130.894669
-31.705618 -2.832676 130.278687
-31.409487 -2.819408 129.668488
-31.116119 -2.806264 129.063965
-30.969181 -2.806264 129.063965
-30.966610 -2.819408 129.668488
-30.675306 -2.806264 129.063965
-30.457373 -2.799738 128.763824
-30.100771 -2.780340 127.871689
-29.478632 -2.736107 125.837372
59.863922 -3.410445 156.851105
60.557144 -3.439678 158.195557
60.911278 -3.449534 158.648834
-37.089340 -2.859276 138.768021
-36.707382 -2.866460 139.116684
-36.549000 -2.866460 139.116684
-35.850163 -2.823889 137.050598
-35.276150 -2.803074 136.040405
-34.949528 -2.789367 135.375168
-34.626087 -2.775794 134.716400
-34.389042 -2.769056 134.389420
-34.070648 -2.755679 133.740204
-33.918388 -2.755679 133.740204
-33.603790 -2.742430 133.097214
-33.372040 -2.735854 132.778046
-33.220875 -2.735854 132.778046
-33.069706 -2.735854 132.778046
-32.761414 -2.722795 132.144257
-32.456047 -2.709860 131.516495
-32.229763 -2.703439 131.204834
-32.004547 -2.697047 130.894669
-31.631191 -2.678054 129.972870
-31.409487 -2.671782 129.668488
-31.043756 -2.653142 128.763824
-30.825474 -2.646986 128.465057
-30.894258 -2.665540 129.365524
-30.462284 -2.640859 128.167694
-30.176661 -2.628689 127.577057
-29.962378 -2.622646 127.283775
-29.478632 -2.592844 125.837372
-29.136709 -2.575285 124.985199
59.694813 -3.222743 156.408035
60.557144 -3.259575 158.195557
60.911278 -3.268914 158.648834
-38.359970 -2.735571 140.529037
-38.199978 -2.735571 140.529037
-37.720009 -2.735571 140.529037
-37.089340 -2.701291 138.768021
-36.615383 -2.701291 138.768021
-36.366257 -2.694537 138.421112
-35.761642 -2.661272 136.712204
-35.431030 -2.648194 136.040405
-35.276150 -2.648194 136.040405
-34.949528 -2.635244 135.375168
-34.710541 -2.628817 135.044983
-34.472713 -2.622421 134.716400
-34.153145 -2.609721 134.064026
-33.918388 -2.603418 133.740204
-33.603790 -2.590901 133.097214
-33.372040 -2.584688 132.778046
-33.220875 -2.584688 132.778046
-32.990593 -2.578505 132.460388
-32.683411 -2.566226 131.829620
-32.379135 -2.554064 131.204834
-32.153568 -2.548026 130.894669
-31.929066 -2.542017 130.585953
-31.631191 -2.530082 129.972870
-31.336102 -2.518259 129.365524
-31.043756 -2.506546 128.763824
-30.754118 -2.494942 128.167694
-30.894258 -2.518259 129.365524
-30.391932 -2.489180 127.871689
-30.038235 -2.472053 126.991844
59.694813 -3.044675 156.408035
60.557144 -3.079471 158.195557
60.737247 -3.079471 158.195557
-38.582024 -2.569060 140.173279
-38.519958 -2.575581 140.529037
-38.359970 -2.575581 140.529037
-38.199978 -2.575581 140.529037
-37.976383 -2.582134 140.886627
-37.720009 -2.575581 140.529037
-37.089340 -2.543305 138.768021
-36.839027 -2.536947 138.421112
-36.342136 -2.524325 137.732437
-36.185329 -2.524325 137.732437
-35.673561 -2.499455 136.375473
-34.864285 -2.475070 135.044983
-34.710541 -2.475070 135.044983
-34.389042 -2.463055 134.389420
-34.153145 -2.457092 134.064026
-33.918388 -2.451157 133.740204
-33.603790 -2.439372 133.097214
-33.372040 -2.433522 132.778046
-33.220875 -2.433522 132.778046
-32.911858 -2.421906 132.144257
-32.605778 -2.410401 131.516495
-32.302589 -2.399004 130.894669
-32.153568 -2.399004 130.894669
-31.853937 -2.387715 130.278687
-31.483381 -2.370979 129.365524
-31.117985 -2.354475 128.465057
-30.616549 -2.327474 126.991844
59.526661 -2.858532 155.967438
60.384617 -2.891108 157.744858
60.737247 -2.899368 158.195557
-38.607971 -2.391313 139.116684
-38.546436 -2.397337 139.467102
-38.291206 -2.391313 139.116684
-38.228874 -2.397337 139.467102
-38.166229 -2.403390 139.819305
-37.911312 -2.397337 139.467102
-37.943684 -2.409475 140.173279
-37.784100 -2.409475 140.173279
-37.434971 -2.397337 139.467102
-36.904354 -2.373423 138.075912
-36.564789 -2.361644 137.390671
-35.344189 -2.332703 135.706970
-34.949528 -2.326999 135.375168
-34.710541 -2.321323 135.044983
-34.389042 -2.310055 134.389420
-34.153145 -2.304461 134.064026
-33.918388 -2.298895 133.740204
-33.603790 -2.287843 133.097214
-33.212746 -2.271462 132.144257
-32.983582 -2.266054 131.829620
-32.755505 -2.260671 131.516495
-32.528511 -2.255314 131.204834
-32.302589 -2.249983 130.894669
-32.077736 -2.244676 130.585953
-31.779163 -2.234138 129.972870
-31.336946 -2.213355 128.763824
-30.902884 -2.192955 127.577057
59.526661 -2.680965 155.967438
60.384617 -2.711518 157.744858
60.564205 -2.711518 157.744858
-38.034584 -2.199769 137.050598
-38.161934 -2.216226 138.075912
-38.004738 -2.216226 138.075912
-38.037251 -2.227334 138.768021
-37.879269 -2.227334 138.768021
-37.439781 -2.210713 137.732437
-37.563297 -2.227334 138.768021
-37.405312 -2.227334 138.768021
-37.154205 -2.221766 138.421112
-36.630314 -2.199769 137.050598
-36.384224 -2.194337 136.712204
-35.673561 -2.188932 136.375473
-35.344189 -2.178202 135.706970
-35.103653 -2.172876 135.375168
-34.864285 -2.167577 135.044983
-34.626087 -2.162303 134.716400
-34.389042 -2.157055 134.389420
-34.153145 -2.151832 134.064026
-34.000515 -2.151832 134.064026
-33.523205 -2.131191 132.778046
-33.133667 -2.115968 131.829620
-32.905235 -2.110942 131.516495
-32.755505 -2.110942 131.516495
-32.605778 -2.110942 131.516495
-32.379135 -2.105940 131.204834
15.304143 -1.824859 113.692902
59.526661 -2.503398 155.967438
60.384617 -2.531927 157.744858
60.737247 -2.539161 158.195557
-37.847221 -2.033671 136.375473
-38.067005 -2.053906 137.732437
-38.004738 -2.059028 138.075912
-37.942158 -2.064176 138.421112
-37.690342 -2.059028 138.075912
-37.254433 -2.043738 137.050598
-37.375950 -2.059028 138.075912
-37.218750 -2.059028 138.075912
-36.969360 -2.053906 137.732437
-36.539867 -2.038692 136.712204
-35.585911 -2.028674 136.040405
-35.344189 -2.023702 135.706970
-35.103653 -2.018754 135.375168
-34.779457 -2.008930 134.716400
-34.542042 -2.004054 134.389420
-34.389042 -2.004054 134.389420
-34.153145 -1.999202 134.064026
-34.000515 -1.999202 134.064026
-33.523205 -1.980025 132.778046
-33.212746 -1.970574 132.144257
-32.983582 -1.965882 131.829620
-32.833496 -1.965882 131.829620
-32.683411 -1.965882 131.829620
-32.456047 -1.961212 131.516495
15.304143 -1.695422 113.692902
15.153536 -1.664658 111.629921
15.280625 -1.664658 111.629921
59.526661 -2.325832 155.967438
60.384617 -2.352337 157.744858
60.737247 -2.359058 158.195557
-37.847221 -1.878409 136.375473
-38.067005 -1.897100 137.732437
-38.004738 -1.901831 138.075912
-37.847542 -1.901831 138.075912
-37.690342 -1.901831 138.075912
-37.254433 -1.887708 137.050598
-37.282974 -1.897100 137.732437
-37.126167 -1.897100 137.732437
-36.877625 -1.892392 137.390671
-36.539867 -1.883047 136.712204
-36.384224 -1.883047 136.712204
-35.917290 -1.883047 136.712204
-35.673561 -1.878409 136.375473
-35.344189 -1.869201 135.706970
-35.103653 -1.864631 135.375168
-34.864285 -1.860083 135.044983
-34.626087 -1.855558 134.716400
-34.389042 -1.851054 134.389420
-34.070648 -1.842111 133.740204
-33.918388 -1.842111 133.740204
-33.603790 -1.833255 133.097214
-33.292202 -1.824484 132.460388
-33.141399 -1.824484 132.460388
-32.911858 -1.820129 132.144257
-32.683411 -1.815796 131.829620
-32.533325 -1.815796 131.829620
15.304143 -1.565984 113.692902
15.153536 -1.537569 111.629921
15.280625 -1.537569 111.629921
15.407714 -1.537569 111.629921
60.025436 -2.172747 157.744858
59.359451 -2.142231 155.529327
60.384617 -2.172747 157.744858
60.564205 -2.172747 157.744858
-37.847221 -1.723148 136.375473
-38.067005 -1.740294 137.732437
-37.910198 -1.740294 137.732437
-37.847542 -1.744633 138.075912
-37.690342 -1.744633 138.075912
-37.346878 -1.735975 137.390671
-37.282974 -1.740294 137.732437
-37.126167 -1.740294 137.732437
-36.877625 -1.735975 137.390671
-36.630314 -1.731678 137.050598
-36.474285 -1.731678 137.050598
-36.318253 -1.731678 137.050598
-36.072933 -1.727402 136.712204
-35.917290 -1.727402 136.712204
-35.673561 -1.723148 136.375473
-35.431030 -1.718914 136.040405
-35.103653 -1.710509 135.375168
-34.864285 -1.706337 135.044983
-34.626087 -1.702185 134.716400
-34.222912 -1.689850 133.740204
-33.825539 -1.677693 132.778046
-33.836658 -1.685778 133.417938
-33.523205 -1.677693 132.778046
-33.292202 -1.673679 132.460388
-33.220875 -1.677693 132.778046
-32.911858 -1.669685 132.144257
-32.605778 -1.661753 131.516495
15.272782 -1.433602 113.459923
15.153536 -1.410480 111.629921
15.280625 -1.410480 111.629921
15.407714 -1.410480 111.629921
15.534803 -1.410480 111.629921
15.661892 -1.410480 111.629921
59.854908 -1.987494 157.296707
59.359451 -1.965163 155.529327
60.213070 -1.987494 157.296707
60.564205 -1.993157 157.744858
-37.847221 -1.567886 136.375473
-37.972546 -1.579558 137.390671
-37.816128 -1.579558 137.390671
-37.753391 -1.583487 137.732437
-37.596584 -1.583487 137.732437
-37.346878 -1.579558 137.390671
-37.282974 -1.583487 137.732437
-37.126167 -1.583487 137.732437
-36.877625 -1.579558 137.390671
-36.630314 -1.575648 137.050598
-36.474285 -1.575648 137.050598
-36.318253 -1.575648 137.050598
-36.072933 -1.571758 136.712204
-35.917290 -1.571758 136.712204
-35.673561 -1.567886 136.375473
-35.431030 -1.564034 136.040405
-35.189690 -1.560201 135.706970
-34.864285 -1.552590 135.044983
-34.542042 -1.545053 134.389420
-34.140446 -1.533884 133.417938
-33.825539 -1.526527 132.778046
-33.755318 -1.530197 133.097214
-33.443005 -1.522875 132.460388
-32.833496 -1.515623 131.829620
15.304143 -1.307109 113.692902
15.280625 -1.283391 111.629921
15.407714 -1.283391 111.629921
15.534803 -1.283391 111.629921
15.661892 -1.283391 111.629921
59.854908 -1.808414 157.296707
59.359451 -1.788095 155.529327
60.213070 -1.808414 157.296707
60.564205 -1.813566 157.744858
-37.972546 -1.423141 137.390671
-37.816128 -1.423141 137.390671
-37.659710 -1.423141 137.390671
-37.503296 -1.423141 137.390671
-37.254433 -1.419618 137.050598
-37.190460 -1.423141 137.390671
-37.034042 -1.423141 137.390671
-36.877625 -1.423141 137.390671
-36.539867 -1.416113 136.712204
-36.384224 -1.416113 136.712204
-36.139347 -1.412625 136.375473
-35.984085 -1.412625 136.375473
-35.828823 -1.412625 136.375473
-35.673561 -1.412625 136.375473
-35.431030 -1.409154 136.040405
-35.103653 -1.402263 135.375168
-34.864285 -1.398843 135.044983
-34.626087 -1.395440 134.716400
-34.222912 -1.385328 133.740204
-33.906849 -1.378667 133.097214
-33.918388 -1.385328 133.740204
-33.603790 -1.378667 133.097214
15.280625 -1.156302 111.629921
15.407714 -1.156302 111.629921
15.534803 -1.156302 111.629921
15.661892 -1.156302 111.629921
60.025436 -1.633976 157.744858
59.359451 -1.611027 155.529327
60.384617 -1.633976 157.744858
60.564205 -1.633976 157.744858
-37.659710 -1.266723 137.390671
-37.410465 -1.263588 137.050598
-37.162449 -1.260468 136.712204
-37.098404 -1.263588 137.050598
-36.942375 -1.263588 137.050598
-36.695515 -1.260468 136.712204
-36.449867 -1.257363 136.375473
-36.205433 -1.254274 136.040405
-36.050552 -1.254274 136.040405
-35.895672 -1.254274 136.040405
-35.828823 -1.257363 136.375473
-35.585911 -1.254274 136.040405
-35.344189 -1.251200 135.706970
-35.018032 -1.245096 135.044983
-34.864285 -1.245096 135.044983
-34.542042 -1.239052 134.389420
-34.058376 -1.227138 133.097214
-33.583927 -1.215451 131.829620
15.661892 -1.029213 111.629921
15.788981 -1.029213 111.629921
60.196938 -1.458542 158.195557
59.359451 -1.433959 155.529327
60.384617 -1.454386 157.744858
60.564205 -1.454386 157.744858
-37.254433 -1.107558 137.050598
-37.098404 -1.107558 137.050598
-36.942375 -1.107558 137.050598
-36.695515 -1.104823 136.712204
-36.449867 -1.102102 136.375473
-36.205433 -1.099394 136.040405
-36.050552 -1.099394 136.040405
-35.895672 -1.099394 136.040405
-35.740791 -1.099394 136.040405
-35.498692 -1.096699 135.706970
-35.103653 -1.094018 135.375168
-34.949528 -1.094018 135.375168
-34.626087 -1.088694 134.716400
-34.222912 -1.080805 133.740204
-40.937283 -1.385305 171.419327
-40.491405 -1.376780 170.364441
-40.421822 -1.381029 170.890259
-40.351810 -1.385305 171.419327
-40.156651 -1.385305 171.419327
-39.838154 -1.381029 170.890259
15.534803 -0.902124 111.629921
15.661892 -0.902124 111.629921
15.788981 -0.902124 111.629921
15.916070 -0.902124 111.629921
59.359451 -1.256891 155.529327
60.384617 -1.274796 157.744858
60.564205 -1.274796 157.744858
-37.098404 -0.951528 137.050598
-36.851158 -0.949178 136.712204
-36.695515 -0.949178 136.712204
-36.449867 -0.946840 136.375473
-36.205433 -0.944514 136.040405
-35.962193 -0.942199 135.706970
-35.807693 -0.942199 135.706970
-35.653191 -0.942199 135.706970
-35.411896 -0.939895 135.375168
-35.103653 -0.939895 135.375168
-34.949528 -0.939895 135.375168
-34.710541 -0.937603 135.044983
-34.305775 -0.930792 134.064026
-41.585094 -1.197561 172.487366
-41.648209 -1.205070 173.568787
-41.192345 -1.197561 172.487366
-40.742126 -1.190146 171.419327
-40.546967 -1.190146 171.419327
-40.477123 -1.193842 171.951691
-40.281361 -1.193842 171.951691
-39.961491 -1.190146 171.419327
-39.766335 -1.190146 171.419327
15.367253 -0.792613 114.161736
15.401955 -0.787740 113.459923
15.534803 -0.775035 111.629921
15.661892 -0.775035 111.629921
15.788981 -0.775035 111.629921
15.916070 -0.775035 111.629921
16.043159 -0.775035 111.629921
16.170248 -0.775035 111.629921
16.297337 -0.775035 111.629921
59.359451 -1.079824 155.529327
60.384617 -1.095206 157.744858
60.564205 -1.095206 157.744858
-37.254433 -0.795498 137.050598
-37.098404 -0.795498 137.050598
-36.851158 -0.793533 136.712204
-36.605129 -0.791579 136.375473
-36.360310 -0.789634 136.040405
-36.116692 -0.787699 135.706970
-35.962193 -0.787699 135.706970
-35.720142 -0.785773 135.375168
-35.566021 -0.785773 135.375168
-35.498692 -0.787699 135.706970
-35.344189 -0.787699 135.706970
-35.018032 -0.783856 135.044983
-34.864285 -0.783856 135.044983
-34.626087 -0.781949 134.716400
-34.305775 -0.778162 134.064026
-42.308678 -1.013820 174.663864
-41.977406 -1.010632 174.114594
-41.779179 -1.010632 174.114594
-41.450603 -1.007464 173.568787
-40.868652 -0.998078 171.951691
-40.546967 -0.994988 171.419327
-40.603222 -1.001187 172.487366
-40.406849 -1.001187 172.487366
-40.085594 -0.998078 171.951691
-39.766335 -0.994988 171.419327
-39.571175 -0.994988 171.419327
15.205929 -0.661278 113.926834
15.272782 -0.658568 113.459923
15.280625 -0.647946 111.629921
15.407714 -0.647946 111.629921
15.534803 -0.647946 111.629921
15.661892 -0.647946 111.629921
15.788981 -0.647946 111.629921
15.916070 -0.647946 111.629921
16.043159 -0.647946 111.629921
16.170248 -0.647946 111.629921
16.297337 -0.647946 111.629921
16.424427 -0.647946 111.629921
60.369423 -0.920863 158.648834
59.526661 -0.905299 155.967438
60.557144 -0.918232 158.195557
60.737247 -0.918232 158.195557
-37.254433 -0.639468 137.050598
-37.098404 -0.639468 137.050598
-36.851158 -0.637889 136.712204
-36.605129 -0.636317 136.375473
-36.360310 -0.634754 136.040405
-36.116692 -0.633198 135.706970
-35.962193 -0.633198 135.706970
-35.720142 -0.631650 135.375168
-35.566021 -0.631650 135.375168
-35.411896 -0.631650 135.375168
-35.018032 -0.630109 135.044983
-34.779457 -0.628576 134.716400
-34.542042 -0.627051 134.389420
-34.222912 -0.624021 133.740204
-42.642048 -0.817547 175.216583
-42.308678 -0.814968 174.663864
-41.977406 -0.812405 174.114594
-41.910973 -0.814968 174.663864
-41.450603 -0.809859 173.568787
-40.995972 -0.804813 172.487366
-40.672890 -0.802313 171.951691
-40.603222 -0.804813 172.487366
-40.533119 -0.807328 173.026382
-40.085594 -0.802313 171.951691
-39.889832 -0.802313 171.951691
-39.571175 -0.799829 171.419327
-39.376019 -0.799829 171.419327
15.026447 -0.520857 111.629921
15.153536 -0.520857 111.629921
15.280625 -0.520857 111.629921
15.407714 -0.520857 111.629921
15.534803 -0.520857 111.629921
15.661892 -0.520857 111.629921
15.788981 -0.520857 111.629921
15.916070 -0.520857 111.629921
16.043159 -0.520857 111.629921
16.170248 -0.520857 111.629921
16.297337 -0.520857 111.629921
16.424427 -0.520857 111.629921
60.542896 -0.742370 159.104721
59.694813 -0.729788 156.408035
60.557144 -0.738128 158.195557
60.737247 -0.738128 158.195557
-37.318092 -0.482244 136.712204
-37.070915 -0.481056 136.375473
-37.006802 -0.482244 136.712204
-36.760391 -0.481056 136.375473
-36.515190 -0.479874 136.040405
-36.271194 -0.478698 135.706970
-36.116692 -0.478698 135.706970
-35.962193 -0.478698 135.706970
-35.720142 -0.477527 135.375168
-35.566021 -0.477527 135.375168
-35.411896 -0.477527 135.375168
-35.257774 -0.477527 135.375168
-34.932831 -0.475204 134.716400
-34.695042 -0.474050 134.389420
-43.114407 -0.622002 176.332626
-42.777420 -0.620028 175.772827
-42.577305 -0.620028 175.772827
-42.243084 -0.618066 175.216583
-42.043606 -0.618066 175.216583
-41.712124 -0.616116 174.663864
-41.252998 -0.612253 173.568787
-40.927094 -0.610340 173.026382
-40.986271 -0.614178 174.114594
-40.660183 -0.612253 173.568787
-40.462578 -0.612253 173.568787
-40.264973 -0.612253 173.568787
-39.817726 -0.608438 172.487366
-39.498302 -0.606549 171.951691
-38.939747 -0.600950 170.364441
15.026447 -0.393768 111.629921
15.153536 -0.393768 111.629921
15.280625 -0.393768 111.629921
15.407714 -0.393768 111.629921
15.534803 -0.393768 111.629921
15.661892 -0.393768 111.629921
15.788981 -0.393768 111.629921
15.916070 -0.393768 111.629921
16.043159 -0.393768 111.629921
16.170248 -0.393768 111.629921
16.297337 -0.393768 111.629921
16.424427 -0.393768 111.629921
60.717373 -0.562849 159.563232
59.694813 -0.551720 156.408035
60.557144 -0.558025 158.195557
60.737247 -0.558025 158.195557
-37.289593 -0.324994 136.040405
-37.226177 -0.325794 136.375473
-37.070915 -0.325794 136.375473
-36.915653 -0.325794 136.375473
-36.670071 -0.324994 136.040405
-36.425694 -0.324197 135.706970
-36.271194 -0.324197 135.706970
-36.116692 -0.324197 135.706970
-35.874264 -0.323405 135.375168
-35.720142 -0.323405 135.375168
-35.566021 -0.323405 135.375168
-35.411896 -0.323405 135.375168
-35.257774 -0.323405 135.375168
-34.848042 -0.321050 134.389420
-43.104088 -0.417264 174.663864
-43.177650 -0.419913 175.772827
-43.114407 -0.421250 176.332626
-42.642048 -0.418584 175.216583
-42.442566 -0.418584 175.216583
-42.243084 -0.418584 175.216583
-41.910973 -0.417264 174.663864
-41.712124 -0.417264 174.663864
-41.382725 -0.415951 174.114594
-41.055393 -0.414648 173.568787
-40.986271 -0.415951 174.114594
-40.788044 -0.415951 174.114594
-40.462578 -0.414648 173.568787
-40.264973 -0.414648 173.568787
-39.817726 -0.412064 172.487366
-39.376019 -0.409513 171.419327
-38.820297 -0.405744 169.841843
14.518090 -0.266679 111.629921
14.645180 -0.266679 111.629921
14.772269 -0.266679 111.629921
14.899358 -0.266679 111.629921
15.026447 -0.266679 111.629921
15.153536 -0.266679 111.629921
15.280625 -0.266679 111.629921
15.407714 -0.266679 111.629921
15.534803 -0.266679 111.629921
15.661892 -0.266679 111.629921
15.788981 -0.266679 111.629921
15.916070 -0.266679 111.629921
16.043159 -0.266679 111.629921
16.170248 -0.266679 111.629921
16.297337 -0.266679 111.629921
16.424427 -0.266679 111.629921
60.717373 -0.381189 159.563232
59.863922 -0.374710 156.851105
60.557144 -0.377922 158.195557
60.911278 -0.379004 158.648834
-37.473736 -0.170954 136.712204
-37.318092 -0.170954 136.712204
-37.070915 -0.170533 136.375473
-36.915653 -0.170533 136.375473
-36.760391 -0.170533 136.375473
-36.515190 -0.170114 136.040405
-36.271194 -0.169697 135.706970
-36.116692 -0.169697 135.706970
-35.720142 -0.169282 135.375168
-35.566021 -0.169282 135.375168
-43.104088 -0.218411 174.663864
-43.177650 -0.219798 175.772827
-43.114407 -0.220498 176.332626
-42.642048 -0.219103 175.216583
-42.577305 -0.219798 175.772827
-42.243084 -0.219103 175.216583
-41.910973 -0.218411 174.663864
-41.712124 -0.218411 174.663864
-41.644642 -0.219103 175.216583
-41.314419 -0.218411 174.663864
-41.115566 -0.218411 174.663864
-40.916714 -0.218411 174.663864
-40.589817 -0.217725 174.114594
-40.264973 -0.217042 173.568787
-39.694069 -0.215020 171.951691
-39.376019 -0.214354 171.419327
-38.820297 -0.212382 169.841843
14.518090 -0.139590 111.629921
14.645180 -0.139590 111.629921
14.772269 -0.139590 111.629921
14.899358 -0.139590 111.629921
15.026447 -0.139590 111.629921
15.153536 -0.139590 111.629921
15.280625 -0.139590 111.629921
15.407714 -0.139590 111.629921
15.534803 -0.139590 111.629921
15.661892 -0.139590 111.629921
15.788981 -0.139590 111.629921
15.916070 -0.139590 111.629921
16.043159 -0.139590 111.629921
16.170248 -0.139590 111.629921
16.297337 -0.139590 111.629921
16.424427 -0.139590 111.629921
60.717373 -0.199529 159.563232
59.863922 -0.196137 156.851105
60.730659 -0.198385 158.648834
60.911278 -0.198385 158.648834
-37.566494 -0.015347 137.050598
-37.410465 -0.015347 137.050598
-37.254433 -0.015347 137.050598
-37.098404 -0.015347 137.050598
-36.851158 -0.015309 136.712204
-36.515190 -0.015234 136.040405
-36.360310 -0.015234 136.040405
-36.205433 -0.015234 136.040405
-43.639458 -0.019621 175.216583
-43.439976 -0.019621 175.216583
-42.968540 -0.019498 174.114594
-43.041012 -0.019621 175.216583
-42.841530 -0.019621 175.216583
-42.642048 -0.019621 175.216583
-42.577305 -0.019683 175.772827
-42.243084 -0.019621 175.216583
-42.043606 -0.019621 175.216583
-41.844124 -0.019621 175.216583
-41.644642 -0.019621 175.216583
-41.314419 -0.019559 174.663864
-41.245678 -0.019621 175.216583
-41.046196 -0.019621 175.216583
-40.717861 -0.019559 174.663864
-40.264973 -0.019436 173.568787
-39.817726 -0.019315 172.487366
-39.498302 -0.019255 171.951691
-38.939747 -0.019078 170.364441
14.518090 -0.012500 111.629921
14.645180 -0.012500 111.629921
14.772269 -0.012500 111.629921
14.899358 -0.012500 111.629921
15.026447 -0.012500 111.629921
15.153536 -0.012500 111.629921
15.280625 -0.012500 111.629921
15.407714 -0.012500 111.629921
15.534803 -0.012500 111.629921
15.661892 -0.012500 111.629921
15.788981 -0.012500 111.629921
15.916070 -0.012500 111.629921
16.043159 -0.012500 111.629921
16.170248 -0.012500 111.629921
16.297337 -0.012500 111.629921
16.424427 -0.012500 111.629921
60.717373 -0.017868 159.563232
59.863922 -0.017564 156.851105
60.730659 -0.017766 158.648834
60.911278 -0.017766 158.648834
-37.722523 0.140683 137.050598
-37.753391 0.141383 137.732437
-37.690342 0.141735 138.075912
-37.626980 0.142090 138.421112
-37.375950 0.141735 138.075912
-37.034042 0.141032 137.390671
-36.695515 0.140336 136.712204
-36.539867 0.140336 136.712204
-36.384224 0.140336 136.712204
-43.563221 0.178729 174.114594
-43.364994 0.178729 174.114594
-43.166767 0.178729 174.114594
-42.699986 0.177612 173.026382
-42.636238 0.178169 173.568787
-42.706383 0.179293 174.663864
-42.507530 0.179293 174.663864
-42.442566 0.179861 175.216583
-42.243084 0.179861 175.216583
-41.910973 0.179293 174.663864
-41.844124 0.179861 175.216583
-41.644642 0.179861 175.216583
-41.445160 0.179861 175.216583
-41.245678 0.179861 175.216583
-41.176502 0.180431 175.772827
-40.717861 0.179293 174.663864
-40.264973 0.178169 173.568787
-39.498302 0.176509 171.951691
14.518090 0.114589 111.629921
14.645180 0.114589 111.629921
14.899358 0.114589 111.629921
15.026447 0.114589 111.629921
15.153536 0.114589 111.629921
15.280625 0.114589 111.629921
15.407714 0.114589 111.629921
15.534803 0.114589 111.629921
15.661892 0.114589 111.629921
15.788981 0.114589 111.629921
15.916070 0.114589 111.629921
16.043159 0.114589 111.629921
16.170248 0.114589 111.629921
16.297337 0.114589 111.629921
16.424427 0.114589 111.629921
60.535713 0.163792 159.563232
60.717373 0.163792 159.563232
60.033989 0.161466 157.296707
60.730659 0.162854 158.648834
60.911278 0.162854 158.648834
-37.878555 0.296713 137.050598
-37.536697 0.295251 136.375473
-37.816059 0.301186 139.116684
-37.469387 0.299680 138.421112
-37.034042 0.297449 137.390671
-36.786343 0.296713 137.050598
-36.630314 0.296713 137.050598
-36.474285 0.296713 137.050598
-36.228580 0.295980 136.712204
-43.022064 0.372274 171.951691
-42.826298 0.372274 171.951691
-42.630535 0.372274 171.951691
-42.303394 0.371121 171.419327
-42.108234 0.371121 171.419327
-42.174217 0.373433 172.487366
-42.109024 0.374600 173.026382
-42.308678 0.378145 174.663864
-42.109825 0.378145 174.663864
-41.910973 0.378145 174.663864
-41.712124 0.378145 174.663864
-41.644642 0.379342 175.216583
-41.314419 0.378145 174.663864
-41.245678 0.379342 175.216583
-41.176502 0.380546 175.772827
-40.589817 0.376956 174.114594
-40.139141 0.374600 173.026382
14.518090 0.241678 111.629921
14.899358 0.241678 111.629921
15.534803 0.241678 111.629921
15.661892 0.241678 111.629921
15.788981 0.241678 111.629921
15.916070 0.241678 111.629921
16.043159 0.241678 111.629921
16.170248 0.241678 111.629921
16.297337 0.241678 111.629921
60.535713 0.345453 159.563232
60.717373 0.345453 159.563232
60.033989 0.340546 157.296707
60.557144 0.342492 158.195557
60.737247 0.342492 158.195557
-37.785027 0.451625 136.712204
-37.375950 0.456130 138.075912
-37.034042 0.453867 137.390671
-36.695515 0.451625 136.712204
-36.539867 0.451625 136.712204
-36.384224 0.451625 136.712204
-42.624935 0.562795 170.364441
-41.914097 0.561068 169.841843
-41.720734 0.561068 169.841843
-41.783714 0.564532 170.890259
-41.717918 0.566279 171.419327
-42.043419 0.573380 173.568787
-41.977406 0.575183 174.114594
-41.910973 0.576998 174.663864
-41.712124 0.576998 174.663864
-41.644642 0.578824 175.216583
-41.314419 0.576998 174.663864
-41.115566 0.576998 174.663864
-41.176502 0.580661 175.772827
-40.589817 0.575183 174.114594
-22.310745 1.550070 469.224091
-22.151999 1.576795 477.314148
-21.242336 1.550070 469.224091
15.407714 0.368767 111.629921
15.534803 0.368767 111.629921
15.661892 0.368767 111.629921
15.788981 0.368767 111.629921
15.916070 0.368767 111.629921
16.043159 0.368767 111.629921
16.170248 0.368767 111.629921
16.297337 0.368767 111.629921
60.535713 0.527113 159.563232
60.717373 0.527113 159.563232
59.863922 0.518154 156.851105
60.557144 0.522595 158.195557
60.737247 0.522595 158.195557
-37.034042 0.610284 137.390671
-36.695515 0.607270 136.712204
-42.818893 0.756752 170.364441
-42.494186 0.754431 169.841843
-41.914097 0.754431 169.841843
-41.720734 0.754431 169.841843
-41.655148 0.756752 170.364441
-41.717918 0.761438 171.419327
-42.175632 0.773410 174.114594
-42.109825 0.775850 174.663864
-42.043606 0.778305 175.216583
-41.844124 0.778305 175.216583
-41.644642 0.778305 175.216583
-41.445160 0.778305 175.216583
-22.989502 2.049537 461.403687
-22.464201 2.049537 461.403687
-21.938900 2.049537 461.403687
-21.776541 2.084275 469.224091
-21.063828 2.066760 465.281036
-20.362995 2.049537 461.403687
15.534803 0.495856 111.629921
15.661892 0.495856 111.629921
15.788981 0.495856 111.629921
15.916070 0.495856 111.629921
16.043159 0.495856 111.629921
16.170248 0.495856 111.629921
16.297337 0.495856 111.629921
16.424427 0.495856 111.629921
60.535713 0.708773 159.563232
60.717373 0.708773 159.563232
60.033989 0.698706 157.296707
60.730659 0.704712 158.648834
60.911278 0.704712 158.648834
-42.818893 0.950709 170.364441
-42.494186 0.947793 169.841843
-42.237022 0.950709 170.364441
-42.043064 0.950709 170.364441
-41.849106 0.950709 170.364441
-41.655148 0.950709 170.364441
-41.977840 0.962556 172.487366
-42.308678 0.974702 174.663864
-42.377190 0.980891 175.772827
-42.177074 0.980891 175.772827
-41.976959 0.980891 175.772827
-41.776848 0.980891 175.772827
-22.989502 2.574838 461.403687
-22.464201 2.574838 461.403687
-21.938900 2.574838 461.403687
-21.593544 2.596475 465.281036
-20.194706 2.553558 457.590424
-19.673746 2.553558 457.590424
15.534803 0.622945 111.629921
15.661892 0.622945 111.629921
15.788981 0.622945 111.629921
15.916070 0.622945 111.629921
16.043159 0.622945 111.629921
16.170248 0.622945 111.629921
16.297337 0.622945 111.629921
16.424427 0.622945 111.629921
60.535713 0.890434 159.563232
60.717373 0.890434 159.563232
60.033989 0.877786 157.296707
60.730659 0.885331 158.648834
60.911278 0.885331 158.648834
-43.821869 1.166197 173.568787
-43.217827 1.155331 171.951691
-42.756496 1.148200 170.890259
-42.561939 1.148200 170.890259
-42.498550 1.151754 171.419327
-42.172825 1.148200 170.890259
-41.978271 1.148200 170.890259
-41.913074 1.151754 171.419327
-42.241028 1.166197 173.568787
-42.577305 1.181005 175.772827
-42.512150 1.184767 176.332626
-42.311398 1.184767 176.332626
-42.110645 1.184767 176.332626
-22.989502 3.100139 461.403687
-22.278545 3.074518 457.590424
-21.757586 3.074518 457.590424
-21.413597 3.100139 461.403687
-20.194706 3.074518 457.590424
-19.673746 3.074518 457.590424
15.534803 0.750034 111.629921
15.661892 0.750034 111.629921
15.788981 0.750034 111.629921
15.916070 0.750034 111.629921
16.043159 0.750034 111.629921
16.170248 0.750034 111.629921
16.297337 0.750034 111.629921
60.535713 1.072094 159.563232
60.717373 1.072094 159.563232
60.033989 1.056866 157.296707
60.730659 1.065951 158.648834
60.911278 1.065951 158.648834
-43.684925 1.359540 173.026382
-43.217827 1.351096 171.951691
-42.756496 1.342756 170.890259
-42.561939 1.342756 170.890259
-42.498550 1.346913 171.419327
-42.172825 1.342756 170.890259
-41.978271 1.342756 170.890259
-41.913074 1.346913 171.419327
-42.241028 1.363802 173.568787
-42.577305 1.381120 175.772827
-42.647972 1.389945 176.895981
-42.446579 1.389945 176.895981
-42.245186 1.389945 176.895981
-22.989502 3.625441 461.403687
-22.464201 3.625441 461.403687
-21.757586 3.595478 457.590424
-21.413597 3.625441 461.403687
-20.888296 3.625441 461.403687
-20.362995 3.625441 461.403687
-19.673746 3.595478 457.590424
15.661892 0.877123 111.629921
15.788981 0.877123 111.629921
15.916070 0.877123 111.629921
16.043159 0.877123 111.629921
16.170248 0.877123 111.629921
16.297337 0.877123 111.629921
60.535713 1.253755 159.563232
60.717373 1.253755 159.563232
60.033989 1.235946 157.296707
60.730659 1.246570 158.648834
60.737247 1.243008 158.195557
-42.865425 1.500268 166.772415
-43.279186 1.542071 171.419327
-43.084026 1.542071 171.419327
-42.624935 1.532582 170.364441
-42.430981 1.532582 170.364441
-42.498550 1.542071 171.419327
-42.043064 1.532582 170.364441
-41.978271 1.537312 170.890259
-41.913074 1.542071 171.419327
-42.373859 1.566318 174.114594
-42.712902 1.586271 176.332626
-42.784664 1.596439 177.462952
-42.446579 1.591339 176.895981
-24.883347 4.116438 457.590424
-24.162695 4.082697 453.839691
-23.841425 4.116438 457.590424
-23.320465 4.116438 457.590424
-22.989502 4.150742 461.403687
-22.464201 4.150742 461.403687
-21.938900 4.150742 461.403687
-21.413597 4.150742 461.403687
-20.888296 4.150742 461.403687
-20.362995 4.150742 461.403687
-19.673746 4.116438 457.590424
15.661892 1.004212 111.629921
15.788981 1.004212 111.629921
15.916070 1.004212 111.629921
16.043159 1.004212 111.629921
16.170248 1.004212 111.629921
16.297337 1.004212 111.629921
60.892857 1.439564 160.024399
60.033989 1.415026 157.296707
60.730659 1.427189 158.648834
60.911278 1.427189 158.648834
-43.185371 1.695242 167.276260
-42.608746 1.680016 165.773773
-42.420013 1.680016 165.773773
-42.687546 1.721243 169.841843
-42.364235 1.715979 169.322449
-25.616009 4.676044 461.403687
-24.883347 4.637398 457.590424
-24.362387 4.637398 457.590424
-23.841425 4.637398 457.590424
-23.320465 4.637398 457.590424
-22.989502 4.676044 461.403687
-22.464201 4.676044 461.403687
-21.938900 4.676044 461.403687
-21.413597 4.676044 461.403687
-20.888296 4.676044 461.403687
-20.362995 4.676044 461.403687
-19.837694 4.676044 461.403687
-19.312393 4.676044 461.403687
-18.479107 4.599387 453.839691
-17.531319 4.489002 442.947540
15.788981 1.131301 111.629921
15.916070 1.131301 111.629921
16.043159 1.131301 111.629921
16.170248 1.131301 111.629921
60.892857 1.621749 160.024399
59.863922 1.589590 156.851105
60.730659 1.607809 158.648834
60.737247 1.603215 158.195557
-42.797478 1.868747 165.773773
-42.229439 1.852111 164.298050
-41.794350 1.841184 163.328735
-41.979908 1.857623 164.787033
-41.792301 1.857623 164.787033
-41.979103 1.891398 167.783157
-41.406048 1.891398 167.783157
-41.340302 1.897147 168.293137
-41.024010 1.891398 167.783157
-25.616009 5.201344 461.403687
-24.883347 5.158358 457.590424
-24.362387 5.158358 457.590424
-23.841425 5.158358 457.590424
-23.320465 5.158358 457.590424
-22.989502 5.201344 461.403687
-22.652975 5.245053 465.281036
-21.938900 5.201344 461.403687
-21.413597 5.201344 461.403687
-20.888296 5.201344 461.403687
-20.362995 5.201344 461.403687
-19.837694 5.201344 461.403687
-19.312393 5.201344 461.403687
-0.433477 1.552640 137.732437
-0.277360 1.556512 138.075912
-0.119567 1.548787 137.390671
0.036942 1.552640 137.732437
15.984153 1.284283 113.926834
15.916070 1.258390 111.629921
16.043159 1.258390 111.629921
16.170248 1.258390 111.629921
60.892857 1.803935 160.024399
59.694813 1.763168 156.408035
60.557144 1.783318 158.195557
60.737247 1.783318 158.195557
-42.538139 2.027131 163.328735
-42.477497 2.033129 163.811966
-42.669724 2.051336 165.278931
-42.104500 2.033129 163.811966
-41.794350 2.027131 163.328735
-41.855339 2.039162 164.298050
-41.545010 2.033129 163.811966
-41.728886 2.051336 165.278931
-42.042721 2.076125 167.276260
-41.600914 2.063656 166.271606
-41.411617 2.063656 166.271606
-41.280952 2.076125 167.276260
-41.215031 2.082417 167.783157
-40.776878 2.069872 166.772415
-25.616009 5.726646 461.403687
-25.090708 5.726646 461.403687
-24.565405 5.726646 461.403687
-23.841425 5.679318 457.590424
-23.514803 5.726646 461.403687
-23.182692 5.774769 465.281036
-22.652975 5.774769 465.281036
-22.123260 5.774769 465.281036
-21.593544 5.774769 465.281036
-21.063828 5.774769 465.281036
-20.362995 5.726646 461.403687
-19.837694 5.726646 461.403687
-19.152786 5.679318 457.590424
-0.890603 1.684308 135.706970
-0.741556 1.696784 136.712204
-0.584468 1.692605 136.375473
-0.430266 1.696784 136.712204
-0.275301 1.700984 137.050598
-0.118683 1.692605 136.375473
0.036578 1.692605 136.375473
0.191840 1.692605 136.375473
16.464235 1.468371 118.308640
16.251671 1.437652 115.833565
15.916070 1.385479 111.629921
16.043159 1.385479 111.629921
16.170248 1.385479 111.629921
60.717373 1.980396 159.563232
59.526661 1.935768 155.967438
