11.771305 5.341441 39.129642
-76.064163 33.591957 244.048233
-75.786316 33.591957 244.048233
-76.563057 34.061119 247.456726
-76.709877 34.252472 248.846939
-76.858360 34.445988 250.252853
-76.790375 34.543571 250.961777
-5.131270 5.053411 36.713432
-5.085258 5.049226 36.683025
-5.041407 5.047136 36.667843
-5.012108 5.059701 36.759132
-4.555004 5.158156 37.474411
-4.519988 5.166898 37.537926
-3.494945 5.364664 38.974705
-3.444511 5.355239 38.906239
-3.400217 5.355239 38.906239
0.215443 4.975063 36.144230
0.257012 4.983196 36.203312
0.298351 4.985233 36.218113
1.222749 5.235672 38.037575
1.265510 5.233425 38.021248
1.307675 5.228937 37.988640
1.350924 5.228937 37.988640
1.395370 5.233425 38.021248
1.838729 5.525093 40.140240
1.936269 5.542673 40.267960
1.984820 5.550241 40.322945
2.031651 5.552769 40.341305
2.077579 5.552769 40.341305
2.123507 5.552769 40.341305
2.169436 5.552769 40.341305
2.215364 5.552769 40.341305
2.264385 5.560365 40.396492
2.311430 5.562901 40.414921
2.359595 5.567982 40.451832
6.325059 5.338827 38.786999
6.368761 5.301687 38.517178
6.373815 5.269611 38.284145
6.400805 5.255983 38.185131
6.430419 5.244679 38.103016
6.473799 5.244679 38.103016
11.812243 5.487795 39.869267
11.815095 5.468108 39.726238
11.791582 5.436416 39.495991
11.773560 5.407485 39.285812
11.760916 5.381236 39.095104
12.070940 5.341165 38.803989
-76.485573 34.057446 245.400299
-76.206184 34.057446 245.400299
-76.777519 34.439041 248.149887
-77.361809 34.829285 250.961777
-77.076088 34.829285 250.961777
-77.008530 34.928234 251.674744
-5.135527 5.099435 36.743885
-5.089472 5.095209 36.713432
-5.047675 5.095209 36.713432
-3.580539 5.404280 38.940445
-3.540875 5.411417 38.991859
-3.499563 5.416184 39.026215
-3.450572 5.409036 38.974705
-3.407700 5.411417 38.991859
0.257327 5.030580 36.247753
0.298595 5.030580 36.247753
1.222224 5.276711 38.021248
1.264425 5.272186 37.988640
1.307114 5.269926 37.972355
1.348611 5.263158 37.923592
1.837896 5.568269 40.122059
1.886138 5.575845 40.176647
1.934510 5.583441 40.231384
1.983015 5.591059 40.286270
2.028880 5.591059 40.286270
2.074745 5.591059 40.286270
2.120610 5.591059 40.286270
2.166476 5.591059 40.286270
2.214355 5.596148 40.322945
6.319525 5.378275 38.753067
6.363228 5.340894 38.483715
6.371062 5.310902 38.267605
6.387039 5.288059 38.103016
6.422132 5.281245 38.053913
6.465456 5.281245 38.053913
11.775147 5.515809 39.744061
11.804508 5.508395 39.690639
11.781077 5.476498 39.460804
11.750545 5.420960 39.060631
11.702141 5.378275 38.753067
12.021497 5.382985 38.786999
12.060374 5.380630 38.770027
12.109814 5.382985 38.786999
12.185984 5.397163 38.889160
-77.192612 34.528122 246.767426
-76.911674 34.528122 246.767426
-76.417870 34.432209 246.081970
-76.993187 34.819088 248.846939
-77.802612 35.315086 252.391754
-77.515266 35.315086 252.391754
-77.448578 35.415989 253.112885
-5.095808 5.143401 36.759132
-5.051862 5.141267 36.743885
-3.505741 5.470254 39.095104
-3.459705 5.467841 39.077858
0.216326 5.078081 36.292301
0.257538 5.076002 36.277439
0.298717 5.073924 36.262589
1.091427 5.315435 37.988640
1.221699 5.317716 38.004936
1.263883 5.313157 37.972355
1.306554 5.310881 37.956089
1.346881 5.299528 37.874950
1.788169 5.601264 40.031410
1.837065 5.611406 40.103897
1.884428 5.616491 40.140240
1.932755 5.624136 40.194878
1.979414 5.626689 40.213123
2.026116 5.629244 40.231384
2.071919 5.629244 40.231384
2.117722 5.629244 40.231384
2.165491 5.634362 40.267960
2.212341 5.636924 40.286270
6.283652 5.429521 38.803989
6.316762 5.420024 38.736122
6.365562 5.349847 38.234573
6.376070 5.322282 38.037575
6.413867 5.317716 38.004936
6.457135 5.317716 38.004936
6.500403 5.317716 38.004936
11.772861 5.538693 39.584232
11.770592 5.516509 39.425682
11.757917 5.489635 39.233616
12.016235 5.424768 38.770027
12.104513 5.424768 38.770027
12.180637 5.439050 38.872097
-77.625069 35.004070 248.149887
-77.342552 35.004070 248.149887
-76.630730 34.809063 246.767426
-77.210068 35.201279 249.547913
-78.248474 35.806458 253.838135
-77.515266 35.602432 252.391754
-77.448578 35.704155 253.112885
-5.291751 5.213372 36.958492
-5.150480 5.198192 36.850876
-5.100040 5.189557 36.789661
-5.058156 5.189557 36.789661
-3.647317 5.526959 39.181561
-3.511940 5.524515 39.164238
-3.391671 5.546584 39.320686
0.216503 5.123597 36.322060
0.257749 5.121498 36.307175
0.298962 5.119399 36.292301
1.091427 5.358685 37.988640
1.136626 5.367892 38.053913
1.179950 5.367892 38.053913
1.221175 5.358685 37.988640
1.261720 5.347220 37.907364
1.741807 5.644288 40.013329
1.789786 5.651947 40.067619
1.837896 5.659626 40.122059
1.884428 5.662190 40.140240
1.931002 5.664757 40.158436
1.977619 5.667326 40.176647
2.023359 5.667326 40.176647
2.070039 5.669897 40.194878
2.116760 5.672471 40.213123
2.163524 5.675047 40.231384
6.314001 5.461737 38.719189
6.362816 5.391050 38.218079
6.373333 5.363285 38.021248
6.405623 5.354093 37.956089
6.448835 5.354093 37.956089
6.492048 5.354093 37.956089
11.730927 5.563871 39.443237
11.765356 5.558921 39.408146
11.752712 5.531852 39.216251
11.735022 5.502622 39.009029
12.010979 5.466515 38.753067
12.093928 5.464125 38.736122
12.169957 5.478498 38.838013
-77.843117 35.385708 248.846939
-77.559807 35.385708 248.846939
-76.844788 35.188023 247.456726
-77.647522 35.686436 250.961777
-78.473328 36.199169 254.567551
-77.515266 35.889778 252.391754
-77.227928 35.889778 252.391754
-5.293960 5.257643 36.973919
-5.247486 5.253258 36.943081
-5.203257 5.251068 36.927681
-5.156916 5.246694 36.896923
-5.106402 5.237967 36.835556
-5.064466 5.237967 36.835556
-3.653781 5.581440 39.250999
-3.558101 5.571567 39.181561
-3.511940 5.569103 39.164238
-3.390167 5.588870 39.303242
0.216592 5.167068 36.336960
0.257961 5.167068 36.336960
0.298962 5.160717 36.292301
1.087696 5.383466 37.858765
1.133219 5.394994 37.939831
1.178937 5.406571 38.021248
1.218563 5.390377 37.907364
1.695486 5.687274 39.995262
1.741807 5.689843 40.013329
1.789786 5.697563 40.067619
1.837896 5.705304 40.122059
1.883575 5.705304 40.122059
1.929253 5.705304 40.122059
1.976722 5.710477 40.158436
2.021526 5.707889 40.140240
2.069100 5.713067 40.176647
2.114840 5.713067 40.176647
2.162542 5.718253 40.213123
6.314001 5.505818 38.719189
6.357331 5.429876 38.185131
6.370599 5.404252 38.004936
6.391930 5.385768 37.874950
6.435050 5.385768 37.874950
6.478170 5.385768 37.874950
11.710072 5.598805 39.373116
11.754897 5.598805 39.373116
11.742316 5.571567 39.181561
11.724696 5.542152 38.974705
11.995237 5.503413 38.702274
12.078085 5.501009 38.685375
12.164624 5.520294 38.820995
-78.282906 35.870537 250.252853
-77.998001 35.870537 250.252853
-77.060036 35.569103 248.149887
-77.647522 35.972153 250.961777
-78.473328 36.488991 254.567551
-77.295059 36.074345 251.674744
-76.790375 35.972153 250.961777
-5.293960 5.299737 36.973919
-5.247486 5.295317 36.943081
-5.205427 5.295317 36.943081
-5.161215 5.293109 36.927681
-5.112780 5.286499 36.881561
-5.068680 5.284298 36.866211
-3.842743 5.641124 39.355625
-3.801315 5.646140 39.390621
-3.753131 5.641124 39.355625
-3.708325 5.641124 39.355625
-3.655400 5.628621 39.268398
-3.561251 5.621146 39.216251
-3.513494 5.616174 39.181561
-3.468886 5.616174 39.181561
-3.385660 5.626127 39.250999
0.175079 5.204168 36.307175
0.216681 5.210574 36.351871
0.258067 5.210574 36.351871
0.299085 5.204168 36.307175
1.695486 5.732808 39.995262
1.742594 5.737989 40.031410
1.789786 5.743179 40.067619
1.837896 5.750982 40.122059
1.883575 5.750982 40.122059
1.929253 5.750982 40.122059
1.975827 5.753588 40.140240
2.022442 5.756196 40.158436
2.069100 5.758807 40.176647
2.114840 5.758807 40.176647
2.163524 5.766653 40.231384
6.314001 5.549899 38.719189
6.357331 5.473349 38.185131
6.367867 5.445184 37.988640
6.381017 5.419620 37.810291
6.424064 5.419620 37.810291
6.467110 5.419620 37.810291
11.694479 5.636116 39.320686
11.744458 5.638619 39.338146
11.737125 5.613691 39.164238
11.714389 5.581613 38.940445
11.979537 5.540214 38.651619
12.013059 5.535383 38.617920
12.062283 5.537797 38.634762
-78.504669 36.257866 250.961777
-78.218956 36.257866 250.961777
-77.276497 35.952324 248.846939
-77.868111 36.360874 251.674744
-78.699471 36.884804 255.301178
-77.295059 36.360874 251.674744
-76.573448 36.155445 250.252853
-5.336054 5.341831 36.973919
-5.293960 5.341831 36.973919
-5.247486 5.337376 36.943081
-5.205427 5.337376 36.943081
-5.161215 5.335151 36.927681
-5.114909 5.330707 36.896923
-5.070791 5.328487 36.881561
-3.841037 5.683404 39.338146
-3.753131 5.685929 39.355625
-3.709974 5.688457 39.373116
-3.655400 5.673327 39.268398
-3.604303 5.663286 39.198898
-3.564407 5.670814 39.250999
-3.515048 5.663286 39.198898
-3.468886 5.660781 39.181561
-3.425794 5.663286 39.198898
-3.379671 5.660781 39.181561
0.050844 5.221961 36.144230
0.134571 5.277949 36.531757
0.175366 5.254116 36.366795
0.216859 5.256274 36.381729
0.258279 5.256274 36.381729
0.299207 5.247653 36.322060
1.647720 5.770526 39.941166
1.696252 5.780952 40.013329
1.742594 5.783564 40.031410
1.788977 5.786179 40.049507
1.836233 5.791415 40.085751
1.881870 5.791415 40.085751
1.928380 5.794037 40.103897
1.975827 5.799287 40.140240
2.021526 5.799287 40.140240
2.068162 5.801916 40.158436
2.113882 5.801916 40.158436
6.286405 5.608688 38.820995
6.314001 5.593980 38.719189
6.357331 5.516822 38.185131
6.365138 5.486081 37.972355
6.375575 5.458007 37.778042
6.413116 5.453356 37.745850
6.456089 5.453356 37.745850
6.499062 5.453356 37.745850
11.658257 5.663286 39.198898
11.718440 5.670814 39.250999
11.731938 5.655779 39.146931
11.709242 5.623474 38.923332
11.963877 5.576918 38.601093
-78.504669 36.543583 250.961777
-78.218956 36.543583 250.961777
-77.276497 36.235634 248.846939
-77.868111 36.647400 251.674744
-78.699471 37.175461 255.301178
-77.076088 36.543583 250.961777
-76.573448 36.440353 250.252853
-5.342744 5.390675 37.020271
-5.300597 5.390675 37.020271
-5.207598 5.381679 36.958492
-5.161215 5.377192 36.927681
-5.114909 5.372714 36.896923
-5.072903 5.372714 36.896923
-5.043499 5.386173 36.989357
-3.842743 5.730735 39.355625
-3.756469 5.735832 39.390621
-3.711623 5.735832 39.390621
-3.653781 5.715501 39.250999
-3.607496 5.712969 39.233616
-3.564407 5.715501 39.250999
-3.516604 5.710441 39.216251
-3.468886 5.705389 39.181561
-3.425794 5.707914 39.198898
-3.373702 5.695313 39.112366
-3.317456 5.675268 38.974705
-3.273084 5.675268 38.974705
-3.228712 5.675268 38.974705
0.051011 5.280346 36.262589
0.093057 5.323931 36.561909
0.134627 5.321735 36.546825
0.175727 5.306411 36.441589
0.217126 5.304229 36.426605
0.258385 5.299870 36.396675
0.299330 5.291175 36.336960
1.598644 5.802917 39.851330
1.648464 5.818622 39.959183
1.697019 5.829139 40.031410
1.742594 5.829139 40.031410
1.788169 5.829139 40.031410
1.834573 5.831774 40.049507
1.881019 5.834412 40.067619
1.928380 5.839694 40.103897
1.974932 5.842339 40.122059
2.020610 5.842339 40.122059
2.069100 5.850288 40.176647
2.114840 5.850288 40.176647
6.316762 5.640527 38.736122
6.365138 5.529312 37.972355
6.372858 5.498672 37.761940
6.391330 5.477658 37.617626
6.425971 5.470689 37.569767
6.468744 5.470689 37.569767
11.692537 5.702867 39.164238
11.726757 5.697829 39.129642
11.704100 5.665298 38.906239
11.681700 5.633138 38.685375
11.948258 5.613527 38.550701
11.976513 5.606208 38.500439
12.025571 5.608646 38.517178
-78.727699 36.933929 251.674744
-78.441170 36.933929 251.674744
-77.276497 36.518940 248.846939
-77.868111 36.933929 251.674744
-78.473328 37.358456 254.567551
-77.295059 36.933929 251.674744
-76.790375 36.829300 250.961777
-5.349450 5.439641 37.066738
-5.307250 5.439641 37.066738
-5.209772 5.426020 36.973919
-5.163367 5.421494 36.943081
-5.117041 5.416976 36.912296
-5.075016 5.416976 36.912296
-5.043499 5.428285 36.989357
-3.842743 5.775541 39.355625
-3.753131 5.775541 39.355625
-3.705034 5.770414 39.320686
-3.645704 5.747455 39.164238
-3.599525 5.744915 39.146931
-3.554957 5.744915 39.146931
-3.510389 5.744915 39.146931
-3.464289 5.742378 39.129642
-3.419741 5.742378 39.129642
-3.370726 5.734778 39.077858
-3.311628 5.709593 38.906239
-3.267334 5.709593 38.906239
-3.225873 5.714612 38.940445
-3.177351 5.707087 38.889160
-3.133076 5.707087 38.889160
0.051284 5.350100 36.456589
0.093019 5.363343 36.546825
0.134516 5.358921 36.516697
0.175727 5.347899 36.441589
0.217215 5.347899 36.441589
0.258491 5.343503 36.411636
0.299576 5.336922 36.366795
1.695486 5.869410 39.995262
1.741020 5.869410 39.995262
1.786554 5.869410 39.995262
1.832916 5.872061 40.013329
1.881019 5.880028 40.067619
1.928380 5.885352 40.103897
1.974932 5.888018 40.122059
2.020610 5.888018 40.122059
2.068162 5.893356 40.158436
6.294681 5.704582 38.872097
6.322291 5.689603 38.770027
6.370599 5.577324 38.004936
6.372858 5.541664 37.761940
6.388617 5.518142 37.601658
6.417806 5.506456 37.522030
6.457789 5.504125 37.506142
11.510555 5.679660 38.702274
11.641073 5.722158 38.991859
11.706075 5.732250 39.060631
11.698962 5.707087 38.889160
11.676601 5.674702 38.668488
11.937869 5.652497 38.517178
11.950544 5.637790 38.416958
11.994282 5.637790 38.416958
12.043242 5.640235 38.433624
-78.727699 37.220455 251.674744
-78.441170 37.220455 251.674744
-77.276497 36.802250 248.846939
-77.647522 37.115017 250.961777
-78.473328 37.648277 254.567551
-77.295059 37.220455 251.674744
-76.790375 37.115017 250.961777
-5.433850 5.481842 37.066738
-5.360665 5.493334 37.144447
-5.313920 5.488731 37.113327
-5.167677 5.468114 36.973919
-5.121308 5.463553 36.943081
-5.077132 5.461276 36.927681
-3.837628 5.812600 39.303242
-3.791200 5.810022 39.285812
-3.739840 5.799735 39.216251
-3.691924 5.794604 39.181561
-3.640875 5.784371 39.112366
-3.599525 5.789484 39.146931
-3.554957 5.789484 39.146931
-3.508838 5.786926 39.129642
-3.461232 5.781818 39.095104
-3.416723 5.781818 39.095104
-3.367755 5.774174 39.043415
-3.310175 5.751361 38.889160
-3.267334 5.753887 38.906239
-3.221625 5.751361 38.889160
-3.173172 5.743797 38.838013
-3.128955 5.743797 38.838013
-3.083387 5.741280 38.820995
-3.039190 5.741280 38.820995
-2.992370 5.736252 38.786999
0.051347 5.398270 36.501652
0.093019 5.404951 36.546825
0.134460 5.398270 36.501652
0.175799 5.391605 36.456589
0.217126 5.387171 36.426605
0.258279 5.380534 36.381729
0.299453 5.376119 36.351871
1.507904 5.893658 39.851330
1.553973 5.896310 39.869267
1.646236 5.901622 39.905186
1.693193 5.906943 39.941166
1.737882 5.904282 39.923168
1.784138 5.906943 39.941166
1.832088 5.914944 39.995262
1.880169 5.922966 40.049507
1.927507 5.928326 40.085751
1.974932 5.933696 40.122059
2.019695 5.931010 40.103897
6.300210 5.753887 38.906239
6.330602 5.741280 38.820995
6.378808 5.627835 38.053913
6.378295 5.589420 37.794159
6.388617 5.560951 37.601658
6.412374 5.544477 37.490269
6.446871 5.537447 37.442734
6.489499 5.537447 37.442734
11.485467 5.711247 38.617920
11.600227 5.746316 38.855049
11.680325 5.764013 38.974705
11.693829 5.748837 38.872097
11.676601 5.718726 38.668488
11.927497 5.691399 38.483715
11.929851 5.671689 38.350437
11.978698 5.674145 38.367046
12.027587 5.676603 38.383671
-78.727699 37.506985 251.674744
-78.441170 37.506985 251.674744
-77.276497 37.085560 248.846939
-77.647522 37.400734 250.961777
-78.473328 37.938099 254.567551
-77.295059 37.506985 251.674744
-76.790375 37.400734 250.961777
-5.438401 5.528668 37.097782
-5.405220 5.537944 37.160030
-5.369671 5.544922 37.206848
-5.320608 5.537944 37.160030
-5.127723 5.512509 36.989357
-5.083489 5.510208 36.973919
-3.827440 5.841796 39.198898
-3.781140 5.839212 39.181561
-3.687032 5.831475 39.129642
-3.639269 5.826328 39.095104
-3.596347 5.828900 39.112366
-3.551818 5.828900 39.112366
-3.505741 5.826328 39.095104
-3.456656 5.818624 39.043415
-3.413710 5.821190 39.060631
-3.366271 5.816061 39.026215
-3.313083 5.800729 38.923332
-3.268770 5.800729 38.923332
-3.224456 5.800729 38.923332
-3.173172 5.788013 38.838013
-3.126214 5.782943 38.803989
-3.080687 5.780411 38.786999
-3.037858 5.782943 38.803989
-2.991060 5.777881 38.770027
-2.946921 5.777881 38.770027
0.051389 5.444313 36.531757
0.093057 5.448807 36.561909
0.134516 5.442069 36.516697
0.175944 5.437586 36.486618
0.217037 5.426411 36.411636
0.257961 5.415282 36.336960
0.299207 5.413062 36.322060
1.413349 5.923041 39.744061
1.459252 5.925700 39.761898
1.508583 5.941700 39.869267
1.554673 5.944376 39.887218
1.599364 5.941700 39.869267
1.643275 5.936357 39.833412
1.688625 5.936357 39.833412
1.733195 5.933689 39.815510
1.781728 5.944376 39.887218
1.830436 5.955101 39.959183
1.879319 5.965865 40.031410
1.926636 5.971262 40.067619
1.973144 5.973963 40.085751
6.311296 5.808385 38.974705
6.338936 5.793093 38.872097
6.388798 5.798181 38.906239
6.388203 5.757723 38.634762
6.391330 5.606140 37.617626
6.409661 5.584796 37.474411
6.430564 5.565961 37.348022
6.475814 5.568308 37.363773
6.534889 5.582435 37.458565
11.470467 5.747696 38.567482
11.519390 5.750200 38.584282
11.649573 5.793093 38.872097
11.911973 5.727748 38.433624
11.914378 5.707937 38.300694
11.963155 5.710406 38.317261
12.011973 5.712877 38.333843
-78.727699 37.793514 251.674744
-78.441170 37.793514 251.674744
-77.276497 37.368866 248.846939
-77.647522 37.686447 250.961777
-78.248474 38.118385 253.838135
-77.295059 37.793514 251.674744
-76.573448 37.579990 250.252853
-5.442960 5.575572 37.128880
-5.409758 5.584936 37.191231
-5.371927 5.589629 37.222481
-5.327312 5.587281 37.206848
-3.817306 5.870837 39.095104
-3.683778 5.870837 39.095104
-3.637663 5.868247 39.077858
-3.594759 5.870837 39.095104
-3.548684 5.868247 39.077858
-3.502650 5.865660 39.060631
-3.452091 5.855333 38.991859
-3.407700 5.855333 38.991859
-3.361828 5.852757 38.974705
-3.313083 5.845042 38.923332
-3.268770 5.845042 38.923332
-3.223040 5.842475 38.906239
-3.173172 5.832230 38.838013
-3.126214 5.827121 38.803989
-3.080687 5.824569 38.786999
-3.033872 5.819474 38.753067
-2.988445 5.816929 38.736122
-2.944344 5.816929 38.736122
-2.900244 5.816929 38.736122
0.051453 5.492699 36.577007
0.093095 5.492699 36.577007
0.134627 5.488167 36.546825
0.176089 5.483643 36.516697
0.217126 5.470114 36.426605
0.257644 5.449945 36.292301
0.298840 5.447713 36.277439
1.459252 5.970968 39.761898
1.507904 5.984398 39.851330
1.553274 5.984398 39.851330
1.597207 5.979019 39.815510
1.640325 5.970968 39.761898
1.686350 5.973649 39.779751
1.731639 5.973649 39.779751
1.778525 5.979019 39.815510
1.828786 5.995185 39.923168
1.880169 6.014158 40.049507
1.927507 6.019600 40.085751
6.319637 5.860492 39.026215
6.347291 5.845042 38.923332
6.400041 5.852757 38.974705
6.399367 5.811846 38.702274
6.394045 5.651366 37.633606
6.406951 5.625081 37.458565
6.419738 5.599039 37.285145
6.462186 5.599039 37.285145
11.455505 5.784050 38.517178
11.509364 5.789084 38.550701
11.688700 5.834788 38.855049
11.671507 5.804239 38.651619
11.891337 5.761506 38.367046
11.904084 5.746573 38.267605
11.947652 5.746573 38.267605
11.996401 5.749056 38.284145
-78.727699 38.080040 251.674744
-78.441170 38.080040 251.674744
-77.060036 37.546707 248.149887
-77.647522 37.972164 250.961777
-78.248474 38.407375 253.838135
-77.295059 38.080040 251.674744
-76.790375 37.972164 250.961777
-5.445242 5.620199 37.144447
-3.950833 5.915346 39.095104
-3.902879 5.910130 39.060631
-3.856709 5.907525 39.043415
-3.812258 5.907525 39.043415
-3.766148 5.904922 39.026215
-3.721717 5.904922 39.026215
-3.637663 5.912737 39.077858
-3.450572 5.897129 38.974705
-3.404702 5.894536 38.957569
-3.361828 5.897129 38.974705
-3.317456 5.897129 38.974705
-3.273084 5.897129 38.974705
-3.227292 5.894536 38.957569
-3.177351 5.884185 38.889160
-3.130327 5.879024 38.855049
-3.082036 5.871298 38.803989
-3.033872 5.863593 38.753067
-2.987139 5.858468 38.719189
-2.943057 5.858468 38.719189
-2.900244 5.861030 38.736122
0.051496 5.538915 36.607235
0.093134 5.536627 36.592113
0.134682 5.532057 36.561909
0.176307 5.532057 36.561909
0.217305 5.516121 36.456589
0.257644 5.491263 36.292301
0.298717 5.486768 36.262589
1.368101 6.013537 39.744061
1.461876 6.027057 39.833412
1.507904 6.029768 39.851330
1.552576 6.027057 39.833412
1.596490 6.021642 39.797623
1.640325 6.016236 39.761898
1.686350 6.018938 39.779751
1.730862 6.016236 39.761898
1.776130 6.016236 39.761898
1.827962 6.037916 39.905186
1.882722 6.067983 40.103897
6.322423 5.907525 39.043415
6.350081 5.891945 38.940445
6.406951 5.667727 37.458565
6.414339 5.636743 37.253788
6.445909 5.627277 37.191231
6.488251 5.627277 37.191231
11.445553 5.822839 38.483715
11.683576 5.876446 38.838013
11.671507 5.848244 38.651619
11.837403 5.800162 38.333843
11.850280 5.785142 38.234573
11.893809 5.785142 38.234573
11.932189 5.782646 38.218079
11.980868 5.785142 38.234573
12.019210 5.782646 38.218079
-78.727699 38.366570 251.674744
-78.441170 38.366570 251.674744
-77.276497 37.935482 248.846939
-77.868111 38.366570 251.674744
-78.473328 38.807564 254.567551
-77.295059 38.366570 251.674744
-76.573448 38.149807 250.252853
-5.447526 5.664863 37.160030
-3.803876 5.938889 38.957569
-3.644093 5.967756 39.146931
-3.403206 5.936278 38.940445
-3.361828 5.941501 38.974705
-3.317456 5.941501 38.974705
-3.273084 5.941501 38.974705
-3.221625 5.928460 38.889160
-3.173172 5.920663 38.838013
-3.126214 5.915476 38.803989
-3.079339 5.910298 38.770027
-3.031220 5.902549 38.719189
-2.987139 5.902549 38.719189
-2.943057 5.902549 38.719189
-2.896444 5.897394 38.685375
-2.851156 5.894820 38.668488
-2.805908 5.892248 38.651619
0.051581 5.589831 36.667843
0.093288 5.587519 36.652672
0.134793 5.578287 36.592113
0.176526 5.580592 36.607235
0.217663 5.566790 36.516697
0.258491 5.550774 36.411636
1.366874 6.053354 39.708431
1.413349 6.058785 39.744061
1.458597 6.058785 39.744061
1.503171 6.056068 39.726238
1.548398 6.056068 39.726238
1.593626 6.056068 39.726238
1.639589 6.058785 39.744061
1.684837 6.058785 39.744061
1.730085 6.058785 39.744061
6.325210 5.954600 39.060631
6.352874 5.938889 38.957569
6.411323 5.951975 39.043415
6.424627 5.923260 38.855049
6.411643 5.676768 37.238129
6.421646 5.648278 37.051239
6.463828 5.648278 37.051239
11.420746 5.853937 38.400307
11.673340 5.915476 38.803989
11.666416 5.889678 38.634762
11.865644 5.879422 38.567482
11.837403 5.843804 38.333843
11.888679 5.826157 38.218079
11.916766 5.818626 38.168682
11.965376 5.821135 38.185131
12.003675 5.818626 38.168682
-78.727699 38.653095 251.674744
-78.441170 38.653095 251.674744
-77.276497 38.218792 248.846939
-77.868111 38.653095 251.674744
-78.473328 39.097385 254.567551
-77.295059 38.653095 251.674744
-76.790375 38.543598 250.961777
-5.449812 5.709564 37.175621
-3.652163 6.025638 39.233616
-3.406200 5.985873 38.974705
-3.361828 5.985873 38.974705
-3.318916 5.988508 38.991859
-3.270207 5.980611 38.940445
-3.223040 5.975358 38.906239
-3.175956 5.970114 38.872097
-3.131701 5.970114 38.872097
-3.086092 5.967495 38.855049
-3.037858 5.959654 38.803989
-2.992370 5.957045 38.786999
-2.948211 5.957045 38.786999
-2.900244 5.949231 38.736122
-2.849912 5.936252 38.651619
-2.805908 5.936252 38.651619
-2.759496 5.931077 38.617920
0.051666 5.640916 36.728653
0.093481 5.640916 36.728653
0.134849 5.622269 36.607235
0.176745 5.629247 36.652672
0.218113 5.619946 36.592113
0.259772 5.619946 36.592113
1.455332 6.090372 39.655106
1.499137 6.084924 39.619637
1.684837 6.104033 39.744061
1.730862 6.106773 39.761898
6.325210 5.999070 39.060631
6.355669 5.985873 38.974705
6.414150 5.999070 39.060631
6.430268 5.972735 38.889160
6.416279 5.685704 37.020271
6.439589 5.669121 36.912296
6.481613 5.669121 36.912296
11.658021 5.951833 38.753067
11.661331 5.931077 38.617920
11.659554 5.907898 38.467003
11.889021 5.957045 38.786999
11.865644 5.923330 38.567482
11.842528 5.889996 38.350437
11.883552 5.867137 38.201599
11.906507 5.857034 38.135818
11.949924 5.857034 38.135818
11.993340 5.857034 38.135818
-78.727699 38.939625 251.674744
-78.441170 38.939625 251.674744
-77.276497 38.502102 248.846939
-77.868111 38.939625 251.674744
-78.473328 39.387207 254.567551
-77.295059 38.939625 251.674744
-76.790375 38.829315 250.961777
-3.319477 5.954278 38.483715
-3.315997 6.027594 38.957569
-3.268770 6.022297 38.923332
-3.218799 6.011732 38.855049
-3.175956 6.014369 38.872097
-3.133076 6.017010 38.889160
-3.084738 6.009096 38.838013
-3.037858 6.003832 38.803989
-2.993681 6.003832 38.803989
-2.949503 6.003832 38.803989
-2.900244 5.993331 38.736122
-2.852401 5.985479 38.685375
-2.804684 5.977648 38.634762
-2.757092 5.969838 38.584282
-2.713165 5.969838 38.584282
-2.668075 5.967239 38.567482
-2.623024 5.964642 38.550701
0.051752 5.692171 36.789661
0.093637 5.692171 36.789661
0.134961 5.668630 36.637512
0.176965 5.678023 36.698223
0.218564 5.673323 36.667843
0.260202 5.670976 36.652672
1.319302 6.132773 39.637363
1.448202 6.105456 39.460804
1.491798 6.100021 39.425682
1.536684 6.100021 39.425682
1.735536 6.168653 39.869267
6.283511 6.046206 39.077858
6.325210 6.043540 39.060631
6.358466 6.032899 38.991859
6.419811 6.048874 39.095104
6.438747 6.024944 38.940445
6.413599 5.725459 37.004807
6.420861 5.694536 36.804947
6.460079 5.692171 36.789661
6.504665 5.694536 36.804947
11.647830 5.990712 38.719189
11.661331 5.975043 38.617920
11.654492 5.949110 38.450306
11.860479 5.964642 38.550701
11.847657 5.936227 38.367046
11.883552 5.910629 38.201599
11.896264 5.895375 38.103016
11.939644 5.895375 38.103016
11.988179 5.897912 38.119411
-78.727699 39.226154 251.674744
-78.441170 39.226154 251.674744
-77.276497 38.785408 248.846939
-77.868111 39.226154 251.674744
-78.248474 39.563339 253.838135
-76.858360 39.004536 250.252853
-76.573448 39.004536 250.252853
-3.315156 5.990284 38.433624
-3.274241 5.995487 38.467003
-3.268770 6.066611 38.923332
-3.211756 6.042716 38.770027
-3.173172 6.053312 38.838013
-3.131701 6.058625 38.872097
-3.084738 6.053312 38.838013
-3.036528 6.045362 38.786999
-2.993681 6.048009 38.803989
-2.949503 6.048009 38.803989
-2.900244 6.037431 38.736122
-2.853647 6.032156 38.702274
-2.805908 6.024261 38.651619
-2.757092 6.013766 38.584282
-2.713165 6.013766 38.584282
-2.669237 6.013766 38.584282
-2.623024 6.008532 38.550701
0.093637 5.734056 36.789661
0.135072 5.715069 36.667843
0.177111 5.724546 36.728653
0.218836 5.722174 36.713432
1.271899 6.166863 39.566551
1.318712 6.175137 39.619637
1.360168 6.158611 39.513607
1.404527 6.155865 39.495991
1.446269 6.142173 39.408146
1.490472 6.139442 39.390621
6.280740 6.088010 39.060631
6.322423 6.085327 39.043415
6.361266 6.079967 39.009029
6.406257 5.799078 37.206848
6.410921 5.765180 36.989357
6.415531 5.731675 36.774391
6.454718 5.729297 36.759132
6.499265 5.731675 36.774391
6.541132 5.731675 36.774391
11.642741 6.032156 38.702274
11.656250 6.016386 38.601093
11.654492 5.992885 38.450306
11.811450 6.005918 38.533932
11.850166 6.003307 38.517178
11.847657 5.979907 38.367046
11.840059 5.954121 38.201599
11.878429 5.951554 38.185131
11.886040 5.933651 38.070267
11.934510 5.936202 38.086632
11.977872 5.936202 38.086632
-78.727699 39.512680 251.674744
-78.441170 39.512680 251.674744
-77.276497 39.068718 248.846939
-77.868111 39.512680 251.674744
-78.248474 39.852333 253.838135
-76.641861 39.178772 249.547913
-76.357750 39.178772 249.547913
-3.272820 6.036660 38.450306
-3.189423 6.044530 38.500439
-3.164847 6.081532 38.736122
-3.131701 6.102880 38.872097
-3.083387 6.094857 38.820995
-3.036528 6.089520 38.786999
-2.994992 6.094857 38.820995
-2.948211 6.089520 38.786999
-2.900244 6.081532 38.736122
-2.853647 6.076218 38.702274
-2.807133 6.070914 38.668488
-2.758293 6.060333 38.601093
-2.713165 6.057693 38.584282
-2.668075 6.055056 38.567482
-2.621883 6.049788 38.533932
-2.575772 6.044530 38.500439
0.135296 5.766361 36.728653
0.177258 5.771147 36.759132
0.218926 5.766361 36.728653
0.991439 6.148746 39.164238
1.087344 6.187039 39.408146
1.133218 6.192548 39.443237
1.316357 6.209136 39.548889
1.358351 6.195307 39.460804
1.403276 6.195307 39.460804
1.446269 6.187039 39.408146
1.489809 6.181540 39.373116
6.280740 6.132480 39.060631
6.325210 6.132480 39.060631
6.364068 6.127077 39.026215
6.415531 5.773542 36.774391
6.449366 5.766361 36.728653
6.493874 5.768753 36.743885
6.538418 5.771147 36.759132
11.637657 6.073565 38.685375
11.656250 6.060333 38.601093
11.654492 6.036660 38.450306
11.816590 6.052421 38.550701
11.860479 6.052421 38.550701
11.847657 6.023588 38.367046
11.834956 5.995028 38.185131
11.878429 5.995028 38.185131
11.875833 5.971861 38.037575
11.919138 5.971861 38.037575
-78.727699 39.799210 251.674744
-78.441170 39.799210 251.674744
-77.276497 39.352028 248.846939
-77.868111 39.799210 251.674744
-78.248474 40.141323 253.838135
-76.858360 39.574356 250.252853
-76.790375 39.686462 250.961777
-3.135829 6.155238 38.923332
-3.087446 6.147135 38.872097
-3.036528 6.133678 38.786999
-2.993681 6.136365 38.803989
-2.946921 6.130994 38.770027
-2.898976 6.122955 38.719189
-2.852401 6.117608 38.685375
-2.807133 6.114937 38.668488
-2.759496 6.106940 38.617920
-2.714347 6.104280 38.601093
-2.669237 6.101621 38.584282
-2.623024 6.096311 38.550701
-2.575772 6.088362 38.500439
-2.527546 6.077797 38.433624
-2.488108 6.088362 38.500439
-2.437919 6.072528 38.400307
0.093172 5.788976 36.607235
0.135521 5.817824 36.789661
0.177332 5.815410 36.774391
0.219290 5.817824 36.789661
0.943098 6.168790 39.009029
0.988380 6.174227 39.043415
1.037862 6.204305 39.233616
1.085895 6.223599 39.355625
1.132714 6.234678 39.425682
1.314010 6.243013 39.478390
1.357141 6.234678 39.425682
1.402651 6.237454 39.443237
1.446913 6.234678 39.425682
1.489809 6.226365 39.373116
6.236270 6.176950 39.060631
6.283511 6.179674 39.077858
6.325210 6.176950 39.060631
6.369680 6.176950 39.060631
6.456854 6.218074 39.320686
6.478616 6.196073 39.181561
6.452041 5.810585 36.743885
6.491181 5.808177 36.728653
6.538418 5.812996 36.759132
6.643672 5.869008 37.113327
6.694338 5.876393 37.160030
6.739471 5.878859 37.175621
11.632578 6.114937 38.668488
11.656250 6.104280 38.601093
11.674761 6.091009 38.517178
11.749263 6.106940 38.617920
11.808672 6.114937 38.668488
11.826883 6.101621 38.584282
11.860479 6.096311 38.550701
11.842528 6.064641 38.350437
11.809505 6.025515 38.103016
11.863089 6.030702 38.135818
11.860555 6.007428 37.988640
11.898702 6.004853 37.972355
-78.727699 40.085735 251.674744
-78.441170 40.085735 251.674744
-77.276497 39.635334 248.846939
-77.868111 40.085735 251.674744
-78.248474 40.430313 253.838135
-77.076088 39.972179 250.961777
-77.448578 40.314796 253.112885
-3.101758 6.132195 38.500439
-3.023292 6.150907 38.617920
-2.984530 6.161650 38.685375
-2.940487 6.161650 38.685375
-2.896444 6.161650 38.685375
-2.851156 6.158961 38.668488
-2.803462 6.150907 38.617920
-2.757092 6.145548 38.584282
-2.713165 6.145548 38.584282
-2.668075 6.142873 38.567482
-2.621883 6.137529 38.533932
-2.578013 6.137529 38.533932
-2.529741 6.126869 38.467003
-2.485947 6.126869 38.467003
-2.440034 6.121553 38.433624
-2.397318 6.124210 38.450306
0.051538 5.835475 36.637512
0.093443 5.847567 36.713432
0.135577 5.862144 36.804947
0.177553 5.864580 36.820244
0.219564 5.867018 36.835556
1.037402 6.246206 39.216251
1.086378 6.271191 39.373116
1.132210 6.276770 39.408146
1.178124 6.282360 39.443237
1.269065 6.287959 39.478390
1.314010 6.287959 39.478390
1.358351 6.285158 39.460804
1.403276 6.285158 39.460804
1.447557 6.282360 39.443237
1.491135 6.276770 39.408146
6.330793 6.226911 39.095104
6.375302 6.226911 39.095104
6.465463 6.271191 39.373116
6.490098 6.251741 39.250999
6.488491 5.847567 36.713432
6.538418 5.854846 36.759132
6.632557 5.901371 37.051239
6.677532 5.903841 37.066738
6.722545 5.906312 37.082256
11.637657 6.161650 38.685375
11.656250 6.148226 38.601093
11.705297 6.150907 38.617920
11.759515 6.156274 38.651619
11.813828 6.161650 38.685375
11.832037 6.148226 38.601093
11.845016 6.132195 38.500439
11.832284 6.103019 38.317261
11.794286 6.061074 38.053913
11.837610 6.061074 38.053913
11.830117 6.035150 37.891151
11.863108 6.029991 37.858765
-78.727699 40.372265 251.674744
-78.441170 40.372265 251.674744
-77.276497 39.918644 248.846939
-77.868111 40.372265 251.674744
-78.699471 40.953999 255.301178
-77.736740 40.602962 253.112885
-78.118164 40.953999 255.301178
-2.940487 6.205693 38.685375
-2.896444 6.205693 38.685375
-2.849912 6.200278 38.651619
-2.803462 6.194872 38.617920
-2.757092 6.189476 38.584282
-2.711983 6.186781 38.567482
-2.666914 6.184089 38.550701
-2.621883 6.181399 38.533932
-2.578013 6.181399 38.533932
-2.528643 6.167985 38.450306
-2.488108 6.176027 38.500439
-2.440034 6.165309 38.433624
-2.395239 6.162635 38.416958
-2.349464 6.157295 38.383671
-2.310771 6.170663 38.467003
0.051581 5.882052 36.667843
0.093443 5.889365 36.713432
0.135634 5.906499 36.820244
0.177627 5.908955 36.835556
1.037402 6.290853 39.216251
1.084931 6.307606 39.320686
1.130199 6.310407 39.338146
1.176029 6.316017 39.373116
1.221941 6.321636 39.408146
1.267370 6.324449 39.425682
1.312840 6.327265 39.443237
1.358956 6.332904 39.478390
1.404527 6.335728 39.495991
1.450139 6.338553 39.513607
6.333588 6.274189 39.112366
6.378117 6.274189 39.112366
6.475752 6.282510 39.164238
6.627014 5.938586 37.020271
6.669161 5.938586 37.020271
6.714114 5.941069 37.035748
6.747816 5.933627 36.989357
6.787094 5.931151 36.973919
11.661331 6.194872 38.617920
11.720625 6.202984 38.668488
11.769786 6.205693 38.685375
11.813828 6.205693 38.685375
11.832037 6.192173 38.601093
11.819333 6.162635 38.416958
11.811848 6.136026 38.251083
11.784163 6.099158 38.021248
11.751794 6.060144 37.778042
11.804872 6.065317 37.810291
11.842863 6.062729 37.794159
-78.727699 40.658794 251.674744
-78.441170 40.658794 251.674744
-77.494179 40.315197 249.547913
-78.089958 40.774632 252.391754
-78.926926 41.363857 256.039032
-78.635429 41.363857 256.039032
-78.799423 41.604347 257.527649
-79.429832 42.093807 260.557373
-2.896444 6.249736 38.685375
-2.848670 6.241559 38.634762
-2.798582 6.227979 38.550701
-2.755892 6.230690 38.567482
-2.710803 6.227979 38.550701
-2.664595 6.222563 38.517178
-2.619605 6.219859 38.500439
-2.578013 6.225270 38.533932
-2.528643 6.211760 38.450306
-2.487027 6.217157 38.483715
-2.442153 6.214457 38.467003
-2.396278 6.209065 38.433624
-2.348446 6.198309 38.367046
-2.304766 6.198309 38.367046
-2.253279 6.176908 38.234573
-2.205941 6.166263 38.168682
0.051709 5.938546 36.759132
0.093598 5.941011 36.774391
0.135690 5.950892 36.835556
0.177627 5.950892 36.835556
0.807376 6.282658 38.889160
0.851651 6.282658 38.889160
0.896713 6.288179 38.923332
0.990125 6.318717 39.112366
1.035569 6.324302 39.146931
1.081571 6.332697 39.198898
1.126198 6.332697 39.198898
1.171862 6.338306 39.233616
1.266807 6.366501 39.408146
1.312840 6.372170 39.443237
1.359562 6.380693 39.495991
1.405781 6.386388 39.531239
1.451434 6.389239 39.548889
6.333588 6.318717 39.112366
6.378117 6.318717 39.112366
6.632557 5.985736 37.051239
6.669161 5.980733 37.020271
6.708505 5.978235 37.004807
6.747816 5.975739 36.989357
6.784262 5.970753 36.958492
6.826339 5.970753 36.958492
11.710402 6.241559 38.634762
11.759515 6.244282 38.651619
11.803519 6.244282 38.651619
11.832037 6.236120 38.601093
11.803977 6.198309 38.367046
11.781326 6.163607 38.152245
11.763967 6.131917 37.956089
11.736778 6.095356 37.729774
11.789776 6.100552 37.761940
11.827725 6.097953 37.745850
-78.727699 40.945320 251.674744
-78.441170 40.945320 251.674744
-77.713089 40.713993 250.252853
-78.537468 41.297287 253.838135
-79.385803 41.897537 257.527649
-79.323204 42.019688 258.278442
-79.492676 42.266136 259.793274
-2.794933 6.263691 38.500439
-2.753495 6.269140 38.533932
-2.708446 6.266414 38.517178
-2.663437 6.263691 38.500439
-2.620744 6.266414 38.517178
-2.575772 6.263691 38.500439
-2.528643 6.255535 38.450306
-2.485947 6.258251 38.467003
-2.442153 6.258251 38.467003
-2.395239 6.250110 38.416958
-2.348446 6.241989 38.367046
-2.300780 6.231194 38.300694
-2.251336 6.215073 38.201599
-2.203094 6.201701 38.119411
-2.159695 6.201701 38.119411
-2.119032 6.209717 38.168682
-2.075578 6.209717 38.168682
0.009884 5.995322 36.850876
0.051817 5.992829 36.835556
0.093676 5.987849 36.804947
0.135690 5.992829 36.835556
0.177627 5.992829 36.835556
0.852399 6.332492 38.923332
0.897501 6.338062 38.957569
0.989688 6.360438 39.095104
1.034198 6.360438 39.095104
1.079183 6.363246 39.112366
1.123712 6.363246 39.112366
1.311672 6.411367 39.408146
1.360775 6.431394 39.531239
1.407037 6.437139 39.566551
6.289059 6.363246 39.112366
6.333588 6.363246 39.112366
6.375302 6.360438 39.095104
6.419811 6.360438 39.095104
6.658032 6.012830 36.958492
6.694523 6.007817 36.927681
6.742185 6.012830 36.958492
6.781433 6.010322 36.943081
6.814966 6.002812 36.896923
11.782956 6.277331 38.584282
11.826883 6.277331 38.584282
11.798867 6.239287 38.350437
11.761066 6.196368 38.086632
11.743840 6.164565 37.891151
11.726789 6.133086 37.697662
11.774718 6.135697 37.713711
11.817655 6.135697 37.713711
11.865643 6.138310 37.729774
-78.727699 41.231850 251.674744
-78.441170 41.231850 251.674744
-77.933235 41.115044 250.961777
-78.763145 41.705776 254.567551
-79.850052 42.437458 259.033661
-79.555145 42.437458 259.033661
-79.726479 42.687092 260.557373
-5.424347 6.157662 37.585705
-5.379274 6.155051 37.569767
-5.341032 6.160276 37.601658
-5.300473 6.162892 37.617626
-2.751101 6.307523 38.500439
-2.702571 6.296577 38.433624
-2.659969 6.299310 38.450306
-2.619605 6.307523 38.500439
-2.575772 6.307523 38.500439
-2.530840 6.304783 38.483715
-2.485947 6.302045 38.467003
-2.445338 6.310266 38.517178
-2.399401 6.304783 38.483715
-2.354565 6.302045 38.467003
-2.304766 6.285669 38.367046
-2.256200 6.272088 38.284145
-2.205941 6.253171 38.168682
-2.158766 6.242413 38.103016
-2.118119 6.250478 38.152245
-2.074684 6.250478 38.152245
-2.030374 6.247787 38.135818
-1.989526 6.255867 38.185131
0.009921 6.059963 36.989357
0.051925 6.047338 36.912296
0.093714 6.032257 36.820244
0.135690 6.034765 36.835556
0.177627 6.034765 36.835556
0.219472 6.032257 36.820244
0.853149 6.382415 38.957569
1.033741 6.402122 39.077858
1.077756 6.399299 39.060631
1.122226 6.399299 39.060631
1.167210 6.402122 39.077858
1.311089 6.453362 39.390621
1.362599 6.485081 39.584232
6.283511 6.402122 39.077858
6.328001 6.402122 39.077858
6.372490 6.402122 39.077858
6.408499 6.393661 39.026215
6.458620 6.399299 39.060631
6.463194 6.360040 38.820995
6.493164 6.346135 38.736122
6.700109 6.054906 36.958492
6.742185 6.054906 36.958492
6.778606 6.049859 36.927681
6.820648 6.049859 36.927681
6.845568 6.034765 36.835556
11.726773 6.291119 38.400307
11.755205 6.282948 38.350437
11.773383 6.269378 38.267605
11.750962 6.234369 38.053913
11.728790 6.199749 37.842590
11.711839 6.168130 37.649601
11.759700 6.170753 37.665607
11.802582 6.170753 37.665607
11.855544 6.176004 37.697662
-78.727699 41.518375 251.674744
-78.441170 41.518375 251.674744
-78.154640 41.518375 251.674744
-78.763145 41.995598 254.567551
-80.084213 42.857677 259.793274
-79.788445 42.857677 259.793274
-80.198227 43.238071 262.099121
-5.426650 6.203085 37.601658
-5.381557 6.200453 37.585705
-5.343299 6.205719 37.617626
-5.302724 6.208355 37.633606
-5.253184 6.200453 37.585705
-5.208184 6.197824 37.569767
-2.658815 6.340333 38.433624
-2.619605 6.351356 38.500439
-2.573535 6.345840 38.467003
-2.530840 6.348596 38.483715
-2.488108 6.351356 38.500439
-2.444276 6.351356 38.500439
-2.398359 6.345840 38.467003
-2.352522 6.340333 38.433624
-2.303768 6.326610 38.350437
-2.257176 6.318404 38.300694
-2.209749 6.307496 38.234573
-2.163419 6.299340 38.185131
-2.118119 6.293914 38.152245
-2.073791 6.291205 38.135818
-2.028627 6.285793 38.103016
-1.985247 6.285793 38.103016
-1.941033 6.283091 38.086632
0.009938 6.112283 37.051239
0.051990 6.096983 36.958492
0.093753 6.076702 36.835556
0.135690 6.076702 36.835556
0.177479 6.071653 36.804947
0.219199 6.066612 36.774391
0.854652 6.438092 39.026215
0.989252 6.446612 39.077858
1.032830 6.440929 39.043415
1.076806 6.438092 39.026215
1.121237 6.438092 39.026215
1.166696 6.443769 39.060631
1.211700 6.446612 39.077858
1.259523 6.463719 39.181561
1.311089 6.498208 39.390621
1.361991 6.527230 39.566551
6.277972 6.440929 39.043415
6.322423 6.440929 39.043415
6.364068 6.438092 39.026215
6.394414 6.423942 38.940445
6.447249 6.432425 38.991859
6.496005 6.393031 38.753067
6.744999 6.099528 36.973919
6.784262 6.096983 36.958492
6.820648 6.091900 36.927681
6.845568 6.076702 36.835556
6.870365 6.061580 36.743885
11.676162 6.307496 38.234573
11.724751 6.310220 38.251083
11.722745 6.285793 38.103016
11.730806 6.266925 37.988640
11.718779 6.237503 37.810291
11.711839 6.210994 37.649601
11.744720 6.205719 37.617626
11.792554 6.208355 37.633606
11.840429 6.210994 37.649601
-78.727699 41.804905 251.674744
-78.441170 41.804905 251.674744
-78.601234 42.043789 253.112885
-78.990128 42.407280 255.301178
-80.319756 43.280373 260.557373
-80.023117 43.280373 260.557373
-5.469459 6.245894 37.601658
-5.428954 6.248546 37.617626
-5.383841 6.245894 37.601658
-5.347841 6.253858 37.649601
-5.304978 6.253858 37.649601
-5.253184 6.243244 37.585705
-5.210393 6.243244 37.585705
-4.956386 6.356513 38.267605
-2.623024 6.403536 38.550701
-2.574653 6.392409 38.483715
-2.533041 6.397968 38.517178
-2.489190 6.397968 38.517178
-2.444276 6.395187 38.500439
-2.400444 6.395187 38.500439
-2.352522 6.384089 38.433624
-2.305765 6.375792 38.383671
-2.261086 6.373030 38.367046
-2.213571 6.362009 38.300694
-2.167155 6.353768 38.251083
-2.122690 6.351026 38.234573
-2.076472 6.342813 38.185131
-2.027755 6.326452 38.086632
-1.983541 6.323733 38.070267
-1.941033 6.326452 38.086632
-1.896041 6.321016 38.053913
0.009938 6.154465 37.051239
0.051990 6.139060 36.958492
0.093753 6.118639 36.835556
0.135577 6.113555 36.804947
0.177332 6.108479 36.774391
0.219017 6.103412 36.743885
0.260850 6.103412 36.743885
0.810221 6.482522 39.026215
0.854652 6.482522 39.026215
0.943514 6.482522 39.026215
0.987509 6.479668 39.009029
1.031466 6.476816 38.991859
1.075385 6.473967 38.974705
1.120743 6.479668 39.009029
1.165668 6.482522 39.026215
1.210098 6.482522 39.026215
1.256189 6.491101 39.077858
6.275207 6.482522 39.026215
6.319637 6.482522 39.026215
6.358466 6.476816 38.991859
6.391605 6.465434 38.923332
6.460363 6.445610 38.803989
6.493164 6.434336 38.736122
6.700109 6.139060 36.958492
6.742185 6.139060 36.958492
6.781433 6.136500 36.943081
6.817806 6.131386 36.912296
6.845568 6.118639 36.835556
6.870365 6.103412 36.743885
6.903607 6.095827 36.698223
6.936767 6.088261 36.652672
11.616001 6.318303 38.037575
11.659307 6.318303 38.037575
11.702612 6.318303 38.037575
11.705709 6.296674 37.907364
11.698806 6.269845 37.745850
11.701892 6.248546 37.617626
11.734754 6.243244 37.585705
11.777544 6.243244 37.585705
-78.951988 42.211349 252.391754
-78.664650 42.211349 252.391754
-79.280785 42.697937 255.301178
-79.218430 42.821342 256.039032
-80.556686 43.705559 261.325989
-80.023117 43.577011 260.557373
-5.438190 6.302078 37.681629
-5.388415 6.294046 37.633606
-5.354668 6.304760 37.697662
-5.311750 6.304760 37.697662
-5.259879 6.294046 37.633606
-5.214818 6.291373 37.617626
-5.182995 6.304760 37.697662
-5.129164 6.291373 37.617626
-4.958528 6.402845 38.284145
-4.919194 6.408384 38.317261
-4.875570 6.408384 38.317261
-4.834037 6.411157 38.333843
-2.491356 6.447426 38.550701
-2.443214 6.436223 38.483715
-2.399401 6.436223 38.483715
-2.356611 6.439020 38.500439
-2.307765 6.425058 38.416958
-2.263046 6.422273 38.400307
-2.216446 6.413933 38.350437
-2.170905 6.408384 38.317261
-2.125442 6.402845 38.284145
-2.078264 6.391797 38.218079
-2.031248 6.380785 38.152245
-1.983541 6.367075 38.070267
-1.940199 6.367075 38.070267
-1.895227 6.361608 38.037575
-1.851127 6.358877 38.021248
-1.808617 6.361608 38.037575
-0.032244 6.196648 37.051239
0.009938 6.196648 37.051239
0.051946 6.175983 36.927681
0.093714 6.158015 36.820244
0.135465 6.150346 36.774391
0.177258 6.147794 36.759132
0.218926 6.142697 36.728653
0.260741 6.142697 36.728653
0.810579 6.529830 39.043415
0.855029 6.529830 39.043415
1.031013 6.518339 38.974705
1.075858 6.521208 38.991859
1.120743 6.524079 39.009029
1.166181 6.529830 39.043415
1.211166 6.532709 39.060631
6.269682 6.521208 38.991859
6.316854 6.524079 39.009029
6.355669 6.518339 38.974705
6.391605 6.509747 38.923332
6.460363 6.489787 38.803989
6.490326 6.475605 38.719189
6.534407 6.475605 38.719189
6.663592 6.186298 36.989357
6.700109 6.181137 36.958492
6.739374 6.178559 36.943081
6.781433 6.178559 36.943081
6.817806 6.173410 36.912296
6.851266 6.165703 36.866211
6.878924 6.152901 36.789661
6.912197 6.145245 36.743885
6.942512 6.135066 36.683025
6.955473 6.109767 36.531757
11.606034 6.356150 38.004936
11.654303 6.358877 38.021248
11.692571 6.356150 38.004936
11.690701 6.331703 37.858765
11.668975 6.296721 37.649601
11.696925 6.288703 37.601658
11.724805 6.280705 37.553841
-79.177567 42.620121 253.112885
-78.889404 42.620121 253.112885
-79.509926 43.112839 256.039032
-79.448044 43.237804 256.781189
-80.319756 43.873653 260.557373
-79.788445 43.744991 259.793274
-5.356948 6.350380 37.713711
-5.316275 6.353085 37.729774
-5.264351 6.342280 37.665607
-5.217033 6.336891 37.633606
-5.180791 6.344977 37.681629
-5.133524 6.339584 37.649601
-5.047882 6.449218 38.300694
-5.004277 6.449218 38.300694
-4.960672 6.449218 38.300694
-4.919194 6.452008 38.317261
-4.871356 6.446431 38.284145
-4.831947 6.452008 38.317261
-2.441093 6.474411 38.450306
-2.398359 6.477222 38.467003
-2.354565 6.477222 38.467003
-2.308766 6.471602 38.433624
-2.265010 6.471602 38.433624
-2.219328 6.465991 38.400307
-2.172784 6.457594 38.350437
-2.126361 6.449218 38.300694
-2.079161 6.438085 38.234573
-2.032999 6.429760 38.185131
-1.984394 6.413174 38.086632
-1.941868 6.415932 38.103016
-1.895227 6.404913 38.037575
-1.850333 6.399417 38.004936
-1.809394 6.407664 38.053913
-1.769110 6.418693 38.119411
-1.724227 6.413174 38.086632
-1.682313 6.418693 38.119411
-0.032299 6.249285 37.113327
0.009942 6.241440 37.066738
0.051968 6.220618 36.943081
0.093753 6.202512 36.835556
0.135465 6.192214 36.774391
0.177258 6.189644 36.759132
0.218926 6.184512 36.728653
0.260633 6.181949 36.713432
0.810221 6.571384 39.026215
1.031013 6.562711 38.974705
1.075385 6.562711 38.974705
1.121237 6.571384 39.026215
1.166696 6.577179 39.060631
6.266924 6.562711 38.974705
6.311296 6.562711 38.974705
6.350081 6.556942 38.940445
6.385993 6.548306 38.889160
6.487491 6.516838 38.702274
6.525851 6.511149 38.668488
6.632557 6.238830 37.051239
6.666375 6.231012 37.004807
6.700109 6.223213 36.958492
6.736565 6.218025 36.927681
6.778606 6.218025 36.927681
6.814966 6.212845 36.896923
6.851266 6.207675 36.866211
6.881782 6.197359 36.804947
6.915065 6.189644 36.759132
6.945387 6.179388 36.698223
6.966965 6.161521 36.592113
6.991298 6.146288 36.501652
11.601058 6.396673 37.988640
11.644307 6.396673 37.988640
11.667543 6.385720 37.923592
11.675732 6.366642 37.810291
11.639296 6.323460 37.553841
11.682050 6.323460 37.553841
11.709912 6.315429 37.506142
-79.632614 43.154884 254.567551
-79.342789 43.154884 254.567551
-79.972191 43.656685 257.527649
-79.911301 43.783966 258.278442
-80.556686 44.300591 261.325989
-79.788445 44.040764 259.793274
-5.361513 6.398765 37.745850
-5.318540 6.398765 37.745850
-5.264351 6.385161 37.665607
-5.212605 6.374321 37.601658
-5.171991 6.377028 37.617626
-5.126987 6.374321 37.601658
-5.084891 6.484413 38.251083
-5.045700 6.490017 38.284145
-5.002114 6.490017 38.284145
-4.958528 6.490017 38.284145
-4.912819 6.487214 38.267605
-4.869252 6.487214 38.267605
-4.823601 6.484413 38.251083
-2.353543 6.518186 38.450306
-2.307765 6.512533 38.416958
-2.262065 6.506889 38.383671
-2.219328 6.509710 38.400307
-2.173725 6.504071 38.367046
-2.128201 6.498442 38.333843
-2.080957 6.487214 38.267605
-2.036510 6.484413 38.251083
-1.986957 6.464873 38.135818
-1.943540 6.464873 38.135818
-1.896856 6.453760 38.070267
-1.851922 6.448218 38.037575
-1.810171 6.453760 38.070267
-1.767588 6.456535 38.086632
-1.721267 6.445451 38.021248
-1.679422 6.450988 38.053913
0.009946 6.286271 37.082256
0.052011 6.267905 36.973919
0.093871 6.252248 36.881561
0.135634 6.241854 36.820244
0.177406 6.236670 36.789661
0.219108 6.231494 36.759132
0.720091 6.604177 38.957569
0.808086 6.598374 38.923332
0.851277 6.589688 38.872097
0.895140 6.586798 38.855049
1.030559 6.604177 38.957569
1.075385 6.607083 38.974705
6.350081 6.601275 38.940445
